ply
format ascii 1.0
element vertex 733
property float x
property float y
property float z
end_header
-0.21078704297542572 -0.0995135605335235596 0.14349830150604248
-0.201075479388237 -0.0995135605335235596 0.141165837645530701
-0.197708368301391602 -0.112211331725120544 0.141024664044380188
-0.194464758038520813 -0.112211331725120544 0.140289872884750366
-0.191218331456184387 -0.112211331725120544 0.139569178223609924
-0.213807776570320129 -0.118556618690490723 0.145242214202880859
-0.112166784703731537 -0.175528645515441895 0.130845144391059875
-0.208043575286865234 -0.0741921365261077881 0.140435323119163513
-0.211239740252494812 -0.0805596858263015747 0.14144153892993927
-0.214243084192276001 -0.106011487543582916 0.143300428986549377
-0.204528972506523132 -0.106011487543582916 0.140923008322715759
-0.201219514012336731 -0.112369067966938019 0.140473097562789917
-0.197905436158180237 -0.11872418224811554 0.14005810022354126
-0.194658085703849792 -0.11872418224811554 0.139322444796562195
-0.217161551117897034 -0.131426438689231873 0.145493760704994202
-0.125494927167892456 -0.169458374381065369 0.130603566765785217
-0.10901225358247757 -0.175784513354301453 0.129163175821304321
-0.0990956872701644897 -0.182106658816337585 0.128702223300933838
-0.211759939789772034 -0.0359993986785411835 0.13907797634601593
-0.208508670330047607 -0.0359993986785411835 0.138282254338264465
-0.234346196055412292 -0.0551499351859092712 0.145373627543449402
-0.214660719037055969 -0.0934177860617637634 0.141437336802482605
-0.204666778445243835 -0.118891753256320953 0.14027288556098938
-0.201346278190612793 -0.12525409460067749 0.13986341655254364
-0.198098152875900269 -0.12525409460067749 0.139112800359725952
-0.194847136735916138 -0.12525409460067749 0.138376370072364807
-0.132219761610031128 -0.169704481959342957 0.130175471305847168
-0.128934785723686218 -0.169704481959342957 0.129724562168121338
-0.122359782457351685 -0.169704481959342957 0.128865420818328857
-0.212073013186454773 0.00233387644402682781 0.137655511498451233
-0.215108320116996765 -0.0743894279003143311 0.139440625905990601
-0.230924218893051147 -0.112684532999992371 0.14527641236782074
-0.198286503553390503 -0.131800904870033264 0.138189002871513367
-0.201455727219581604 -0.138167396187782288 0.139337018132209778
-0.135671347379684448 -0.169950574636459351 0.129327014088630676
-0.119212865829467773 -0.169950574636459351 0.127140223979949951
-0.105968736112117767 -0.17629629373550415 0.126175835728645325
-0.212366029620170593 -0.00405184132978320122 0.136324197053909302
-0.231387898325920105 -0.100065752863883972 0.143381208181381226
-0.218361541628837585 -0.106455162167549133 0.140236422419548035
-0.227656975388526917 -0.138364434242248535 0.144562959671020508
-0.116054214537143707 -0.170196652412414551 0.125428110361099243
-0.215733617544174194 -0.0681781917810440063 0.13665124773979187
-0.231770366430282593 -0.0938023924827575684 0.14181797206401825
-0.218585178256034851 -0.112999998033046722 0.139256611466407776
-0.221493154764175415 -0.138561487197875977 0.141556918621063232
-0.198735341429710388 -0.138561487197875977 0.135987266898155212
-0.12947063148021698 -0.164073601365089417 0.125272065401077271
-0.126166760921478271 -0.164073601365089417 0.124833144247531891
-0.112883895635604858 -0.170442759990692139 0.123728998005390167
-0.00988687854260206223 -0.170442759990692139 0.119039513170719147
-0.102903522551059723 -0.17680804431438446 0.123200647532939911
-0.0962342247366905212 -0.183169350028038025 0.12311822921037674
-0.215933278203010559 -0.0811021924018859863 0.135760486125946045
-0.21880398690700531 -0.119562029838562012 0.138298004865646362
-0.195811912417411804 -0.132362589240074158 0.133548364043235779
-0.132936209440231323 -0.164309889078140259 0.124410204589366913
-0.123009391129016876 -0.164309889078140259 0.123091273009777069
-0.139478236436843872 -0.170688852667808533 0.125868424773216248
-0.109701961278915405 -0.170688852667808533 0.122043214738368988
-0.216052636504173279 -0.10047990083694458 0.135228082537651062
-0.192939102649688721 -0.119729600846767426 0.130780726671218872
-0.219017922878265381 -0.126141101121902466 0.137360721826553345
-0.221996068954467773 -0.145358279347419739 0.13939240574836731
-0.136410161852836609 -0.164546176791191101 0.123564153909683228
-0.119840256869792938 -0.164546176791191101 0.121362559497356415
-0.106508441269397736 -0.170934930443763733 0.120370596647262573
-0.0998166576027870178 -0.177319824695587158 0.120237767696380615
-0.0864391401410102844 -0.19007737934589386 0.120209567248821259
0.063183613121509552 -0.196449741721153259 0.123721525073051453
0.0498249046504497528 -0.209180861711502075 0.123530499637126923
-0.219136148691177368 -0.139152646064758301 0.136842727661132812
-0.222194045782089233 -0.151974394917488098 0.138540282845497131
-0.116659387946128845 -0.164782479405403137 0.119646936655044556
-0.0164895113557577133 -0.164782479405403137 0.114433623850345612
-0.00648019649088382721 -0.177575692534446716 0.115677371621131897
-0.0932287201285362244 -0.183966353535652161 0.118864543735980988
-0.0832028687000274658 -0.19035281240940094 0.118637137115001678
-0.0798737630248069763 -0.19035281240940094 0.118398748338222504
-0.0765437707304954529 -0.19035281240940094 0.11817476898431778
-0.216166138648986816 -0.139349699020385742 0.134721770882606506
-0.22585238516330719 -0.145772010087966919 0.137668833136558533
-0.219235241413116455 -0.152191072702407837 0.136408567428588867
-0.133487328886985779 -0.15860670804977417 0.119975388050079346
-0.13016296923160553 -0.15860670804977417 0.119519099593162537
-0.126836881041526794 -0.15860670804977417 0.119077146053314209
-0.113466814160346985 -0.165018782019615173 0.117944560945034027
-0.103420950472354889 -0.171427130699157715 0.117391511797904968
-0.0967081934213638306 -0.177831590175628662 0.117287352681159973
0.0835645496845245361 -0.177831590175628662 0.121975749731063843
0.0735449865460395813 -0.184232011437416077 0.121161334216594696
-0.00313513493165373802 -0.190628275275230408 0.115580148994922638
0.0668416619300842285 -0.190628275275230408 0.120896145701408386
0.0567578636109828949 -0.203407585620880127 0.120957687497138977
0.0467385388910770416 -0.209790349006652832 0.120576813817024231
-0.213090449571609497 -0.145978882908821106 0.133032634854316711
-0.216263264417648315 -0.152407750487327576 0.134288549423217773
-0.222686424851417542 -0.158833205699920654 0.136421039700508118
-0.219424813985824585 -0.158833205699920654 0.13557802140712738
-0.136978492140769958 -0.158833205699920654 0.119130976498126984
-0.123657383024692535 -0.158833205699920654 0.11733168363571167
-0.12032289057970047 -0.158833205699920654 0.116918005049228668
-0.140239596366882324 -0.165255069732666016 0.120106421411037445
-0.110262610018253326 -0.165255069732666016 0.116255424916744232
0.0804111286997795105 -0.178087472915649414 0.120192274451255798
-0.0900944843888282776 -0.18449769914150238 0.115942642092704773
-0.086754918098449707 -0.18449769914150238 0.115674331784248352
-0.0733871385455131531 -0.18449769914150238 0.114746175706386566
-0.00308375363238155842 -0.18449769914150238 0.113679736852645874
0.000208324650884605944 -0.203702569007873535 0.115584507584571838
0.00352625804953277111 -0.21009509265422821 0.116347819566726685
-0.213278114795684814 -0.152624428272247314 0.132180050015449524
-0.210000216960906982 -0.152624428272247314 0.131377860903739929
-0.130536451935768127 -0.152624428272247314 0.116415522992610931
-0.216449469327926636 -0.159059688448905945 0.133457839488983154
-0.117124930024147034 -0.159059688448905945 0.115199580788612366
-0.107046812772750854 -0.165491372346878052 0.114579692482948303
-0.00636372575536370277 -0.165491372346878052 0.110651023685932159
-0.143670737743377686 -0.171919301152229309 0.11980438232421875
-0.100311793386936188 -0.171919301152229309 0.114424817264080048
-0.016449393704533577 -0.171919301152229309 0.11097051203250885
0.0872963964939117432 -0.171919301152229309 0.119303926825523376
0.0906214937567710876 -0.171919301152229309 0.11980438232421875
-0.0935781672596931458 -0.178343355655670166 0.11434955894947052
-0.0835011899471282959 -0.184763357043266296 0.114099718630313873
-0.0801545605063438416 -0.184763357043266296 0.113860085606575012
-0.0768070369958877563 -0.184763357043266296 0.113634936511516571
0.000268305244389921427 -0.197590619325637817 0.113643430173397064
0.0604038350284099579 -0.197590619325637817 0.118080891668796539
0.0436306409537792206 -0.210399836301803589 0.117635667324066162
-0.226662501692771912 -0.152841120958328247 0.134242579340934753
-0.134036406874656677 -0.152841120958328247 0.115556932985782623
-0.127351820468902588 -0.152841120958328247 0.114654012024402618
-0.124006971716880798 -0.152841120958328247 0.114224366843700409
-0.213460966944694519 -0.159286186099052429 0.131349265575408936
-0.11391526460647583 -0.159286186099052429 0.113494478166103363
-0.110566049814224243 -0.159286186099052429 0.113123029470443726
-0.00968817900866270065 -0.159286186099052429 0.108748897910118103
-0.223173424601554871 -0.165727660059928894 0.134324997663497925
-0.219903722405433655 -0.165727660059928894 0.133479893207550049
-0.21663077175617218 -0.165727660059928894 0.132648959755897522
-0.103819467127323151 -0.165727660059928894 0.112917356193065643
-0.0130627881735563278 -0.165727660059928894 0.109179094433784485
-0.0970736518502235413 -0.172165408730506897 0.112791463732719421
0.0841377973556518555 -0.172165408730506897 0.117504246532917023
0.0941282510757446289 -0.172165408730506897 0.119007885456085205
-0.0903295204043388367 -0.178599238395690918 0.112745344638824463
-0.0869776085019111633 -0.178599238395690918 0.112476103007793427
-0.0702039971947669983 -0.178599238395690918 0.111347883939743042
-0.00299708615057170391 -0.178599238395690918 0.110474102199077606
0.0774039328098297119 -0.178599238395690918 0.11710754781961441
0.0706690028309822083 -0.185029029846191406 0.116790637373924255
0.000327697576722130179 -0.191454619169235229 0.111721441149711609
0.00364032923243939877 -0.204292550683021545 0.113066777586936951
0.0538042373955249786 -0.204292550683021545 0.116659209132194519
0.00696540717035531998 -0.210704565048217773 0.113846838474273682
0.0103122517466545105 -0.210704565048217773 0.113999225199222565
0.037060122936964035 -0.210704565048217773 0.115740165114402771
0.0403994061052799225 -0.210704565048217773 0.116022959351539612
-0.234358742833137512 -0.0883457958698272705 0.131238803267478943
-0.230633094906806946 -0.127205505967140198 0.132190793752670288
-0.20726853609085083 -0.15305781364440918 0.127998426556587219
-0.120803743600845337 -0.15305781364440918 0.112489894032478333
-0.117450594902038574 -0.15305781364440918 0.112088605761528015
-0.00627974467352032661 -0.15305781364440918 0.10702688992023468
-0.107338227331638336 -0.15951266884803772 0.111445188522338867
-0.100580640137195587 -0.16596396267414093 0.111268498003482819
-0.00967214442789554596 -0.16596396267414093 0.107918508350849152
-0.00293273245915770531 -0.16596396267414093 0.108093798160552979
-0.0938241258263587952 -0.172411486506462097 0.111171744763851166
-0.0904661044478416443 -0.172411486506462097 0.110887393355369568
-0.013050297275185585 -0.172411486506462097 0.10837043821811676
-0.0837115868926048279 -0.17885512113571167 0.110899701714515686
-0.0803525969386100769 -0.17885512113571167 0.110659129917621613
-0.0769927129149436951 -0.17885512113571167 0.110433205962181091
0.000386496976716443896 -0.185294702649116516 0.109818615019321442
0.0640716180205345154 -0.19173005223274231 0.115238375961780548
0.00370787037536501884 -0.1981610506772995 0.111124143004417419
0.00704121869057416916 -0.20458751916885376 0.111884571611881256
0.013719635084271431 -0.211009323596954346 0.112847402691841125
0.0170702803879976273 -0.211009323596954346 0.113029070198535919
0.0204202011227607727 -0.211009323596954346 0.113225236535072327
0.0237693339586257935 -0.211009323596954346 0.11343596875667572
0.027117626741528511 -0.211009323596954346 0.113661192357540131
0.0304650180041790009 -0.211009323596954346 0.113900907337665558
0.0338114574551582336 -0.211009323596954346 0.114155113697052002
-0.241569027304649353 -0.0364730507135391235 0.130469560623168945
-0.234471216797828674 -0.107934102416038513 0.130779087543487549
-0.230851873755455017 -0.133860424160957336 0.131281256675720215
-0.204336613416671753 -0.14680635929107666 0.12548084557056427
-0.131066396832466125 -0.14680635929107666 0.112012028694152832
-0.127711310982704163 -0.14680635929107666 0.111566253006458282
-0.124354533851146698 -0.14680635929107666 0.111135050654411316
-0.12099611759185791 -0.14680635929107666 0.110718339681625366
-0.00285826507024466991 -0.14680635929107666 0.105339393019676208
-0.137713432312011719 -0.153274491429328918 0.113398261368274689
-0.114228986203670502 -0.153274491429328918 0.110381320118904114
-0.11086774617433548 -0.153274491429328918 0.110008545219898224
-0.227162405848503113 -0.159739166498184204 0.132128313183784485
-0.140999019145965576 -0.159739166498184204 0.114359140396118164
-0.1040988489985466 -0.159739166498184204 0.10978090763092041
-0.00626001879572868347 -0.159739166498184204 0.106175467371940613
-0.213923320174217224 -0.166200250387191772 0.129248559474945068
-0.144276216626167297 -0.166200250387191772 0.115354768931865692
-0.0973303690552711487 -0.166200250387191772 0.109633274376392365
-0.220377266407012939 -0.172657579183578491 0.13140520453453064
-0.0871990695595741272 -0.172657579183578491 0.109295479953289032
-0.0838338658213615417 -0.172657579183578491 0.109039798378944397
0.00046136416494846344 -0.172657579183578491 0.107395768165588379
0.0978317856788635254 -0.172657579183578491 0.116916842758655548
-0.0737035647034645081 -0.179111003875732422 0.108899019658565521
-0.0164095740765333176 -0.179111003875732422 0.107533194124698639
-0.013038155622780323 -0.179111003875732422 0.107584379613399506
-0.00966696068644523621 -0.179111003875732422 0.107650130987167358
0.00377474515698850155 -0.192005515098571777 0.10920058935880661
0.00711629493162035942 -0.198446273803710938 0.109941311180591583
0.057454574853181839 -0.198446273803710938 0.113765433430671692
0.0104517415165901184 -0.204882517457008362 0.110717326402664185
0.0507016442716121674 -0.204882517457008362 0.11368744820356369
-0.241926431655883789 -0.0234856139868497849 0.129056453704833984
-0.238337293267250061 -0.0820786952972412109 0.129331603646278381
-0.234537914395332336 -0.127560317516326904 0.130506500601768494
-0.00278882123529911041 -0.127560317516326904 0.102770864963531494
-0.230964109301567078 -0.147013247013092041 0.130814686417579651
-0.134583428502082825 -0.147013247013092041 0.11115507036447525
-0.117774359881877899 -0.147013247013092041 0.108995623886585236
-0.114407733082771301 -0.147013247013092041 0.108607500791549683
-0.141235128045082092 -0.153491169214248657 0.112572237849235535
-0.107627958059310913 -0.153491169214248657 0.108328759670257568
-0.144521966576576233 -0.159965664148330688 0.113548777997493744
-0.100847959518432617 -0.159965664148330688 0.108130179345607758
-0.0974781438708305359 -0.159965664148330688 0.107815362513065338
-0.227352544665336609 -0.166436553001403809 0.131324112415313721
-0.0940687060356140137 -0.166436553001403809 0.108011685311794281
-0.0906984806060791016 -0.166436553001403809 0.107726246118545532
0.000518345856107771397 -0.166436553001403809 0.105551764369010925
0.0880582630634307861 -0.166436553001403809 0.113538026809692383
-0.223954066634178162 -0.172903686761856079 0.130965113639831543
-0.217385470867156982 -0.172903686761856079 0.129282459616661072
-0.0805495455861091614 -0.172903686761856079 0.107475854456424713
-0.0704305246472358704 -0.172903686761856079 0.106839291751384735
-0.00625284202396869659 -0.172903686761856079 0.105865798890590668
0.00386045896448194981 -0.179366901516914368 0.106735214591026306
0.0745277851819992065 -0.179366901516914368 0.112719632685184479
0.0677609369158744812 -0.185826048254966736 0.11243060976266861
-0.00966346822679042816 -0.192280948162078857 0.107469156384468079
0.00719063356518745422 -0.192280948162078857 0.108017139136791229
0.0105343619361519814 -0.198731496930122375 0.10877344012260437
0.0138718383386731148 -0.205177485942840576 0.109565190970897675
0.0172351598739624023 -0.205177485942840576 0.109747566282749176
0.0205977447330951691 -0.205177485942840576 0.109944425523281097
0.0239595454186201096 -0.205177485942840576 0.110155940055847168
0.0273205004632472992 -0.205177485942840576 0.110382020473480225
0.030680553987622261 -0.205177485942840576 0.110622666776180267
0.0340396501123905182 -0.205177485942840576 0.110877804458141327
0.0373977348208427429 -0.205177485942840576 0.111147589981555939
0.0407547503709793091 -0.205177485942840576 0.111431866884231567
0.0441106334328651428 -0.205177485942840576 0.111730709671974182
0.0474653393030166626 -0.205177485942840576 0.112044043838977814
-0.242260545492172241 -0.0169814787805080414 0.127735421061515808
-0.238804012537002563 -0.0626364797353744507 0.127455741167068481
-0.23494112491607666 -0.121237725019454956 0.128858491778373718
-0.131435602903366089 -0.140729069709777832 0.108944050967693329
-0.128068670630455017 -0.140729069709777832 0.108496725559234619
-0.124700039625167847 -0.140729069709777832 0.108063958585262299
-0.121329762041568756 -0.140729069709777832 0.107645846903324127
-0.117957897484302521 -0.140729069709777832 0.107242293655872345
-0.138108834624290466 -0.147220104932785034 0.110314011573791504
-0.111167684197425842 -0.147220104932785034 0.106912210583686829
-0.107793070375919342 -0.147220104932785034 0.106552757322788239
-0.231167376041412354 -0.15370786190032959 0.129969656467437744
-0.104376599192619324 -0.15370786190032959 0.106662452220916748
-0.101001091301441193 -0.15370786190032959 0.106332443654537201
0.000589478760957717896 -0.15370786190032959 0.103249825537204742
-0.0942095145583152771 -0.160192146897315979 0.106192372739315033
-0.0874192938208580017 -0.166672840714454651 0.106132619082927704
-0.0772541016340255737 -0.173149779438972473 0.105925858020782471
-0.0738759636878967285 -0.173149779438972473 0.105713337659835815
0.00392529275268316269 -0.173149779438972473 0.104870401322841644
-0.227413386106491089 -0.179622769355773926 0.131066784262657166
-0.224131077527999878 -0.179622769355773926 0.130203366279602051
-0.0163853950798511505 -0.186091706156730652 0.105445891618728638
-0.0130059150978922844 -0.186091706156730652 0.105497151613235474
0.00726422760635614395 -0.186091706156730652 0.106112211942672729
0.0106161674484610558 -0.192556411027908325 0.106848724186420441
0.0611268654465675354 -0.192556411027908325 0.110906012356281281
0.0139620080590248108 -0.19901670515537262 0.107620760798454285
0.0173328351229429245 -0.19901670515537262 0.107803449034690857
0.0543510988354682922 -0.19901670515537262 0.110776998102664948
-0.239196866750717163 -0.049655325710773468 0.12587660551071167
-0.235679984092712402 -0.0822956934571266174 0.125838592648506165
-0.231960505247116089 -0.121405288577079773 0.126672565937042236
-0.131643831729888916 -0.13442210853099823 0.107213862240314484
-0.128270208835601807 -0.13442210853099823 0.106765598058700562
-0.124894894659519196 -0.13442210853099823 0.106331981718540192
-0.121517926454544067 -0.13442210853099823 0.105913005769252777
-0.13496457040309906 -0.140926122665405273 0.108088113367557526
-0.11471770703792572 -0.140926122665405273 0.105531580746173859
-0.104534916579723358 -0.147426977753639221 0.104885131120681763
0.000644617422949522734 -0.147426977753639221 0.101465493440628052
-0.0977318733930587769 -0.153924539685249329 0.104693949222564697
-0.0909295380115509033 -0.160418644547462463 0.104583166539669037
0.00400680815801024437 -0.160418644547462463 0.102525778114795685
-0.0841288790106773376 -0.166909143328666687 0.104552708566188812
-0.0705896839499473572 -0.166909143328666687 0.103671528398990631
0.0816205516457557678 -0.173395857214927673 0.110460080206394196
0.00733707519248127937 -0.179878666996955872 0.104226596653461456
0.0714714750647544861 -0.179878666996955872 0.109657891094684601
-0.227588087320327759 -0.186357364058494568 0.130327865481376648
0.0106971543282270432 -0.186357364058494568 0.104943245649337769
0.0140512855723500252 -0.192831844091415405 0.105695419013500214
0.0174295492470264435 -0.192831844091415405 0.105878569185733795
0.0207743663340806961 -0.199301943182945251 0.10668075829744339
0.0241487640887498856 -0.199301943182945251 0.106893047690391541
0.0275223162025213242 -0.199301943182945251 0.107119984924793243
0.0308949630707502365 -0.199301943182945251 0.107361488044261932
0.0477426648139953613 -0.199301943182945251 0.108788244426250458
0.0511086955666542053 -0.199301943182945251 0.109117388725280762
-0.236139893531799316 -0.0627943351864814758 0.123958900570869446
-0.232830047607421875 -0.0627943351864814758 0.123057618737220764
-0.125087514519691467 -0.128092512488365173 0.104619860649108887
-0.118277743458747864 -0.134609341621398926 0.104186870157718658
-0.114892549812793732 -0.134609341621398926 0.103796564042568207
-0.111465834081172943 -0.141123160719871521 0.103834345936775208
-0.108079336583614349 -0.141123160719871521 0.103473566472530365
-0.101265251636505127 -0.147633850574493408 0.103231050074100494
-0.0944512486457824707 -0.154141217470169067 0.103069163858890533
0.0040695718489587307 -0.154141217470169067 0.100720487534999847
-0.0876382738351821899 -0.160645142197608948 0.102987676858901978
-0.080827273428440094 -0.167145431041717529 0.102986738085746765
-0.0740473940968513489 -0.167145431041717529 0.102545484900474548
0.00742930825799703598 -0.167145431041717529 0.101839281618595123
0.0107773179188370705 -0.180134549736976624 0.103057168424129486
-0.224601626396179199 -0.186623051762580872 0.128178000450134277
0.0141396718099713326 -0.186623051762580872 0.103789471089839935
0.0648208111524581909 -0.186623051762580872 0.108081407845020294
0.0208785589784383774 -0.193107292056083679 0.104755416512489319
0.0242603924125432968 -0.193107292056083679 0.104968175292015076
0.0580226555466651917 -0.193107292056083679 0.107900984585285187
-0.00959854200482368469 -0.199587151408195496 0.104106701910495758
0.0343584641814231873 -0.199587151408195496 0.106299027800559998
0.0377342291176319122 -0.199587151408195496 0.106570132076740265
0.0411089099943637848 -0.199587151408195496 0.106855966150760651
0.0444824658334255219 -0.199587151408195496 0.107156366109848022
-0.239890709519386292 -0.0366704091429710388 0.123087845742702484
-0.233238324522972107 -0.0432224646210670471 0.121360458433628082
-0.13200850784778595 -0.12826991081237793 0.104183591902256012
-0.128623172640800476 -0.12826991081237793 0.103733852505683899
-0.121847473084926605 -0.12826991081237793 0.102878294885158539
-0.118457190692424774 -0.12826991081237793 0.102472566068172455
-0.135343402624130249 -0.134796559810638428 0.105039611458778381
-0.111634030938148499 -0.134796559810638428 0.102097921073436737
-0.138670757412910461 -0.141320213675498962 0.105930842459201813
-0.104809358716011047 -0.141320213675498962 0.101804070174694061
-0.101415075361728668 -0.141320213675498962 0.101472117006778717
-0.0979841127991676331 -0.147840723395347595 0.101590760052204132
-0.0945890694856643677 -0.147840723395347595 0.101288415491580963
0.00413164589554071426 -0.147840723395347595 0.0989350602030754089
-0.0911592617630958557 -0.15435791015625 0.101458169519901276
-0.0843357518315315247 -0.160871624946594238 0.101406209170818329
0.00749985966831445694 -0.160871624946594238 0.100013189017772675
-0.0775145441293716431 -0.167381733655929565 0.101434797048568726
0.0108566544950008392 -0.173888057470321655 0.101190567016601562
0.07520294189453125 -0.173888057470321655 0.106920473277568817
0.0785759538412094116 -0.173888057470321655 0.107368580996990204
-0.221727252006530762 -0.180390417575836182 0.125490814447402954
0.0142271574586629868 -0.180390417575836182 0.101902849972248077
0.0683932006359100342 -0.180390417575836182 0.106608070433139801
0.0175917204469442368 -0.186888709664344788 0.102650895714759827
0.0209817085415124893 -0.186888709664344788 0.102849394083023071
0.0615833364427089691 -0.186888709664344788 0.106376305222511292
0.0277230627834796906 -0.193382740020751953 0.103875249624252319
0.0311082340776920319 -0.193382740020751953 0.104117684066295624
0.03449244424700737 -0.193382740020751953 0.104374773800373077
0.0547742843627929688 -0.193382740020751953 0.106225095689296722
-0.236893773078918457 -0.0367098823189735413 0.120877601206302643
-0.128820151090621948 -0.121907994151115417 0.10204198956489563
-0.125426590442657471 -0.121907994151115417 0.101606033742427826
-0.122031368315219879 -0.121907994151115417 0.101184725761413574
-0.115198701620101929 -0.128447309136390686 0.100758425891399384
-0.111800298094749451 -0.128447309136390686 0.100381523370742798
-0.196109101176261902 -0.134983792901039124 0.114590756595134735
-0.10836387425661087 -0.134983792901039124 0.100412920117378235
-0.104964196681976318 -0.134983792901039124 0.100065618753433228
-0.199370443820953369 -0.141517281532287598 0.115740634500980377
-0.0981272011995315552 -0.141517281532287598 0.0998305007815361023
-0.0912902578711509705 -0.148047596216201782 0.0996761694550514221
-0.0878559723496437073 -0.154574602842330933 0.0998610407114028931
0.00756964832544326782 -0.154574602842330933 0.0982067286968231201
-0.0810220465064048767 -0.161098122596740723 0.0998386070132255554
-0.077620379626750946 -0.161098122596740723 0.0996097996830940247
-0.0742178484797477722 -0.161098122596740723 0.0993957147002220154
-0.0708145275712013245 -0.161098122596740723 0.0991964340209960938
0.0109351575374603271 -0.167618021368980408 0.099343515932559967
0.0143137378618121147 -0.174134135246276855 0.100035779178142548
0.0719763189554214478 -0.174134135246276855 0.105170495808124542
-0.218712404370307922 -0.180646315217018127 0.123363003134727478
0.0176865309476852417 -0.180646315217018127 0.100763805210590363
0.0210838038474321365 -0.180646315217018127 0.100962772965431213
0.0651551857590675354 -0.180646315217018127 0.104887232184410095
0.024447539821267128 -0.187154382467269897 0.101741045713424683
0.0278409793972969055 -0.187154382467269897 0.101969301700592041
0.0379726067185401917 -0.193658187985420227 0.103327423334121704
0.0413598120212554932 -0.193658187985420227 0.103614263236522675
0.0447458811104297638 -0.193658187985420227 0.103915758430957794
0.0481307581067085266 -0.193658187985420227 0.104231975972652435
0.0515143796801567078 -0.193658187985420227 0.104562833905220032
-0.24055132269859314 -0.0301769301295280457 0.120432451367378235
-0.129014775156974792 -0.115523718297481537 0.100370146334171295
-0.125614762306213379 -0.115523718297481537 0.0999334156513214111
-0.122213087975978851 -0.115523718297481537 0.0995113253593444824
-0.132370904088020325 -0.122075565159320831 0.101172178983688354
-0.118773043155670166 -0.122075565159320831 0.0994552373886108398
-0.11536957323551178 -0.122075565159320831 0.0990628302097320557
-0.111964628100395203 -0.122075565159320831 0.0986852198839187622
-0.135719910264015198 -0.128624722361564636 0.102009810507297516
-0.108523570001125336 -0.128624722361564636 0.0986952707171440125
-0.139061525464057922 -0.135171011090278625 0.102882817387580872
-0.101676024496555328 -0.135171011090278625 0.0984085053205490112
-0.098268657922744751 -0.135171011090278625 0.0980902612209320068
-0.094827897846698761 -0.141714319586753845 0.0982027575373649597
-0.0914197862148284912 -0.141714319586753845 0.0979141220450401306
-0.0879801362752914429 -0.148254454135894775 0.0980778783559799194
0.00763866957277059555 -0.148254454135894775 0.0964202135801315308
-0.0845414325594902039 -0.154791280627250671 0.0982778593897819519
-0.0811337083578109741 -0.154791280627250671 0.0980338603258132935
-0.0777250677347183228 -0.154791280627250671 0.0978045836091041565
-0.0743155702948570251 -0.154791280627250671 0.0975901111960411072
-0.0709052756428718567 -0.154791280627250671 0.0973903611302375793
0.0110128233209252357 -0.161324620246887207 0.097516179084777832
-0.212589427828788757 -0.16785430908203125 0.119392193853855133
0.0143994083628058434 -0.16785430908203125 0.098188348114490509
0.0857200473546981812 -0.16785430908203125 0.105162233114242554
-0.215801268815994263 -0.17438022792339325 0.120716027915477753
0.0177803654223680496 -0.17438022792339325 0.0988963469862937927
0.0245569664984941483 -0.180902197957038879 0.0998540297150611877
0.0313203558325767517 -0.187420055270195007 0.100891411304473877
0.034717019647359848 -0.187420055270195007 0.101149506866931915
0.0584618076682090759 -0.187420055270195007 0.103367537260055542
-0.0129127493128180504 -0.193933650851249695 0.099465593695640564
-0.237503483891487122 -0.0433704778552055359 0.118385583162307739
0.00770692061632871628 -0.141911372542381287 0.0946536436676979065
0.0110896490514278412 -0.15500795841217041 0.0957086309790611267
0.014484163373708725 -0.161551117897033691 0.0963606163859367371
0.0178732052445411682 -0.16809062659740448 0.097048439085483551
0.0825018808245658875 -0.16809062659740448 0.103368006646633148
0.0212564673274755478 -0.174626335501670837 0.0977721735835075378
0.0688809007406234741 -0.174626335501670837 0.102116934955120087
0.0280394852161407471 -0.181158080697059631 0.0987607911229133606
0.0620382055640220642 -0.181158080697059631 0.101862497627735138
0.0382096990942955017 -0.187685713171958923 0.100102156400680542
0.0416093543171882629 -0.187685713171958923 0.10039009153842926
0.0450078696012496948 -0.187685713171958923 0.100692756474018097
0.048405185341835022 -0.187685713171958923 0.101010061800479889
0.0518012568354606628 -0.187685713171958923 0.101342171430587769
0.0551960095763206482 -0.187685713171958923 0.101688921451568604
-0.237791731953620911 -0.0500105395913124084 0.117207422852516174
-0.19679376482963562 -0.142108425498008728 0.111094072461128235
-0.203415825963020325 -0.148668199777603149 0.113029070198535919
0.0111656263470649719 -0.148668199777603149 0.0939210280776023865
0.0145680001005530357 -0.155224636197090149 0.0945526808500289917
-0.213254272937774658 -0.161777600646018982 0.116314560174942017
0.0179650560021400452 -0.161777600646018982 0.095220319926738739
0.0213564913719892502 -0.168326914310455322 0.0959239602088928223
0.0758763924241065979 -0.168326914310455322 0.101135879755020142
0.0792717412114143372 -0.168326914310455322 0.101587027311325073
0.0247419979423284531 -0.174872413277626038 0.0966634377837181091
0.0315313041210174561 -0.181413963437080383 0.0976829007267951965
0.0349403545260429382 -0.181413963437080383 0.0979418531060218811
0.0587717369198799133 -0.181413963437080383 0.10016806423664093
0.0112407524138689041 -0.142305478453636169 0.0921534448862075806
0.0146509120240807533 -0.148875072598457336 0.0927647575736045837
-0.206940561532974243 -0.155441343784332275 0.112956620752811432
-0.203588485717773438 -0.155441343784332275 0.112182088196277618
-0.210189610719680786 -0.162004083395004272 0.114217594265937805
0.0214554406702518463 -0.162004083395004272 0.0940954536199569702
0.0248492006212472916 -0.168563202023506165 0.0948148295283317566
0.0726275146007537842 -0.168563202023506165 0.0993823185563087463
0.0282368864864110947 -0.175118505954742432 0.0955701172351837158
0.0657635405659675598 -0.175118505954742432 0.0990756005048751831
0.0384454838931560516 -0.181669846177101135 0.0968947336077690125
0.0554936565458774567 -0.181669846177101135 0.098487265408039093
-0.0162766240537166595 -0.20129847526550293 0.0960565581917762756
-0.241849556565284729 -0.0236829798668622971 0.115214385092258453
-0.200583562254905701 -0.149081945419311523 0.109670050442218781
0.0181225351989269257 -0.155658021569252014 0.0920859724283218384
-0.207111865282058716 -0.162230595946311951 0.11213269829750061
0.0283512715250253677 -0.168799489736557007 0.0937212780117988586
0.0693668127059936523 -0.168799489736557007 0.0976422280073165894
0.0931921675801277161 -0.168799489736557007 0.100912757217884064
0.0317410752177238464 -0.17536461353302002 0.094492301344871521
0.0624914467334747314 -0.17536461353302002 0.0973648130893707275
0.0419597215950489044 -0.181925728917121887 0.0958632752299308777
0.0453757122159004211 -0.181925728917121887 0.0961674153804779053
0.0487904995679855347 -0.181925728917121887 0.0964864343404769897
0.0522040240466594696 -0.181925728917121887 0.0968201756477355957
-0.0162542127072811127 -0.195035427808761597 0.094121783971786499
-0.0196823179721832275 -0.201583683490753174 0.0946973487734794617
-0.242116332054138184 -0.0435678251087665558 0.114142097532749176
0.0147944651544094086 -0.142699584364891052 0.0896691307425498962
0.0182124190032482147 -0.149288803339004517 0.0902970433235168457
0.0216250605881214142 -0.155874699354171753 0.0909611061215400696
-0.204021111130714417 -0.162457078695297241 0.110060036182403564
0.0250320769846439362 -0.162457078695297241 0.0916613191366195679
0.0798072665929794312 -0.162457078695297241 0.0971370935440063477
0.0832180231809616089 -0.162457078695297241 0.0976053029298782349
0.031862650066614151 -0.169035807251930237 0.0926432311534881592
0.0967719629406929016 -0.169035807251930237 0.100126773118972778
0.035254504531621933 -0.17561069130897522 0.0934301465749740601
0.0386799462139606476 -0.17561069130897522 0.093705303966999054
0.0592076778411865234 -0.17561069130897522 0.0956676527857780457
0.106801211833953857 -0.182181626558303833 0.102859601378440857
0.110101886093616486 -0.188748404383659363 0.104007840156555176
-0.0196673683822154999 -0.195310875773429871 0.0927615687251091003
0.113392554223537445 -0.195310875773429871 0.105191141366958618
-0.245850145816802979 -0.00382486754097044468 0.113543093204498291
0.0183012932538986206 -0.142896637320518494 0.0885282158851623535
0.021721886470913887 -0.149495676159858704 0.0891718640923500061
-0.201012298464775085 -0.156091377139091492 0.107524469494819641
0.0251370146870613098 -0.156091377139091492 0.0898517370223999023
0.0285463742911815643 -0.162683576345443726 0.0905678421258926392
0.0731287375092506409 -0.162683576345443726 0.0949271693825721741
0.0765480846166610718 -0.162683576345443726 0.0953664705157279968
0.0867955386638641357 -0.162683576345443726 0.0967731252312660217
0.0902076512575149536 -0.162683576345443726 0.0972715616226196289
0.0970259383320808411 -0.162683576345443726 0.0983129143714904785
0.0353832729160785675 -0.169272094964981079 0.0915807634592056274
0.0662323310971260071 -0.169272094964981079 0.0945972427725791931
0.100359819829463959 -0.169272094964981079 0.0993571504950523376
0.0422065593302249908 -0.175856783986091614 0.0926740020513534546
0.0559123009443283081 -0.175856783986091614 0.0939842835068702698
0.103684566915035248 -0.175856783986091614 0.100436680018901825
-0.246168538928031921 0.00282729184255003929 0.112284228205680847
0.0286583434790372849 -0.156308069825172424 0.0887579545378684998
0.0320699736475944519 -0.162910059094429016 0.0894898697733879089
0.093796558678150177 -0.162910059094429016 0.0964711681008338928
0.100620903074741364 -0.162910059094429016 0.0975436046719551086
0.0389130748808383942 -0.169508382678031921 0.0905340313911437988
0.0629430189728736877 -0.169508382678031921 0.0928837209939956665
0.045742228627204895 -0.176102876663208008 0.0916585102677345276
0.0491744205355644226 -0.176102876663208008 0.0919790863990783691
0.0526053495705127716 -0.176102876663208008 0.0923145487904548645
0.103797778487205505 -0.182693377137184143 0.0996713414788246155
0.107112705707550049 -0.189279735088348389 0.100808672606945038
-0.24643920361995697 0.0228009391576051712 0.111214123666286469
0.0184558816254138947 -0.136668846011161804 0.0854514390230178833
0.0218894481658935547 -0.143290743231773376 0.086075611412525177
0.0253176987171173096 -0.149909421801567078 0.0867360904812812805
0.0906187668442726135 -0.156524747610092163 0.0941602736711502075
0.100879132747650146 -0.156524747610092163 0.0957499220967292786
0.0356028191745281219 -0.1631365567445755 0.0884276404976844788
0.0699940845370292664 -0.1631365567445755 0.0918656587600708008
0.0424519926309585571 -0.169744685292243958 0.0895029604434967041
0.0596420243382453918 -0.169744685292243958 0.0911838337779045105
0.110621176660060883 -0.196137219667434692 0.100675694644451141
0.0219841226935386658 -0.136856094002723694 0.0843261033296585083
0.0254203416407108307 -0.143487796187400818 0.0849660933017730713
0.028851095587015152 -0.150116294622421265 0.0856424570083618164
0.0977095812559127808 -0.150116294622421265 0.0934303775429725647
0.0322760790586471558 -0.156741440296173096 0.086355060338973999
0.0804992765188217163 -0.156741440296173096 0.0913867801427841187
0.0839322358369827271 -0.156741440296173096 0.0918580293655395508
0.0873633474111557007 -0.156741440296173096 0.0923441499471664429
0.0942197814583778381 -0.156741440296173096 0.0933609679341316223
0.0391448475420475006 -0.163363054394721985 0.0873810648918151855
0.0666993707418441772 -0.163363054394721985 0.090135626494884491
0.045999966561794281 -0.169980987906455994 0.0884877815842628479
0.0494444034993648529 -0.169980987906455994 0.0888095274567604065
0.0528875663876533508 -0.169980987906455994 0.0891461595892906189
0.0563293993473052979 -0.169980987906455994 0.0894978195428848267
0.107420459389686584 -0.196412667632102966 0.098782368004322052
0.0323938056826591492 -0.150323167443275452 0.0845644921064376831
0.0358210764825344086 -0.156958118081092834 0.0852929800748825073
0.0737764164805412292 -0.156958118081092834 0.089170306921005249
0.0772179737687110901 -0.156958118081092834 0.0896124169230461121
0.0978289172053337097 -0.156958118081092834 0.0925780236721038818
0.042695995420217514 -0.163589537143707275 0.0863503068685531616
0.0633929073810577393 -0.163589537143707275 0.0884193778038024902
0.0221495833247900009 -0.13057611882686615 0.0812686458230018616
0.0255987923592329025 -0.137230545282363892 0.0818890035152435303
0.0290426816791296005 -0.143881902098655701 0.082545742392539978
0.0946404710412025452 -0.150530040264129639 0.0902693122625350952
0.0393752604722976685 -0.157174810767173767 0.0842467173933982849
0.0704764202237129211 -0.157174810767173767 0.0874238312244415283
0.0462562032043933868 -0.16381603479385376 0.0853354409337043762
0.0497128106653690338 -0.16381603479385376 0.0856583565473556519
0.0600747391581535339 -0.16381603479385376 0.0867168456315994263
0.107724443078041077 -0.203580230474472046 0.0967809110879898071
0.0256991088390350342 -0.1307535320520401 0.0801590457558631897
0.0291509833186864853 -0.137417763471603394 0.0807952955365180969
0.0325973927974700928 -0.144078955054283142 0.0814680010080337524
0.0360380262136459351 -0.150736913084983826 0.0821771696209907532
0.0913751646876335144 -0.150736913084983826 0.0884358212351799011
0.0429385676980018616 -0.157391488552093506 0.0832162648439407349
0.0671646296977996826 -0.157391488552093506 0.0856910720467567444
0.0532858408987522125 -0.164042532444000244 0.0846748054027557373
0.0567449368536472321 -0.164042532444000244 0.0850281789898872375
0.111339643597602844 -0.20386543869972229 0.0960655137896537781
0.0257982369512319565 -0.124253958463668823 0.078449733555316925
0.0292580146342515945 -0.130930930376052856 0.0790652632713317871
0.0361613519489765167 -0.14427599310874939 0.0804060027003288269
0.0396042913198471069 -0.150943771004676819 0.0811311453580856323
0.0777325034141540527 -0.150943771004676819 0.085192948579788208
0.0811893939971923828 -0.150943771004676819 0.085652276873588562
0.0846444815397262573 -0.150943771004676819 0.0861265584826469421
0.0880977213382720947 -0.150943771004676819 0.0866158083081245422
0.0465109311044216156 -0.157608166337013245 0.0822017937898635864
0.0499796345829963684 -0.157608166337013245 0.0825257971882820129
0.0534470602869987488 -0.157608166337013245 0.0828648358583450317
0.0603778325021266937 -0.157608166337013245 0.08358803391456604
0.0638410672545433044 -0.157608166337013245 0.0839721038937568665
0.0327997170388698578 -0.137792229652404785 0.0783906057476997375
0.0397345013916492462 -0.144473046064376831 0.0793598964810371399
0.0848633870482444763 -0.144473046064376831 0.0843651294708251953
0.043179679661989212 -0.151150643825531006 0.0801010876893997192
0.0466565191745758057 -0.151150643825531006 0.0804106816649436951
0.0709568709135055542 -0.151150643825531006 0.0829993784427642822
0.074422299861907959 -0.151150643825531006 0.0834293365478515625
0.0570360049605369568 -0.157824859023094177 0.081897340714931488
0.0294459573924541473 -0.124589093029499054 0.0760275125503540039
0.0329135134816169739 -0.131285741925239563 0.07665986567735672
0.0363756008446216583 -0.137979447841644287 0.0773289129137992859
0.0433167740702629089 -0.144670113921165466 0.0783296823501586914
0.0502448529005050659 -0.151357531547546387 0.0794120952486991882
0.053724292665719986 -0.151357531547546387 0.0797523036599159241
0.0572023987770080566 -0.151357531547546387 0.0801076292991638184
0.0606791004538536072 -0.151357531547546387 0.0804779902100563049
0.0641543418169021606 -0.151357531547546387 0.0808633863925933838
0.0676280632615089417 -0.151357531547546387 0.0812638923525810242
0.0330259464681148529 -0.124756671488285065 0.0749497786164283752
0.0364961177110671997 -0.131463140249252319 0.075598105788230896
0.0399606786668300629 -0.138166680932044983 0.0762831196188926697
0.046908114105463028 -0.144867166876792908 0.0773155167698860168
0.0503956824541091919 -0.144867166876792908 0.077641315758228302
0.074769340455532074 -0.144867166876792908 0.0803446173667907715
0.0782449841499328613 -0.144867166876792908 0.080791085958480835
0.0817188695073127747 -0.144867166876792908 0.0812526717782020569
0.040087919682264328 -0.131640538573265076 0.0745522305369377136
0.0435548797249794006 -0.138353914022445679 0.0752533748745918274
0.0470504388213157654 -0.138353914022445679 0.0755646005272865295
0.0784480497241020203 -0.138353914022445679 0.0790468752384185791
0.0539998449385166168 -0.145064204931259155 0.0766587778925895691
0.057489883154630661 -0.145064204931259155 0.0770152732729911804
0.060978524386882782 -0.145064204931259155 0.0773869529366493225
0.0644656941294670105 -0.145064204931259155 0.0777736753225326538
0.0679513514041900635 -0.145064204931259155 0.0781755894422531128
0.0714354217052459717 -0.145064204931259155 0.0785925313830375671
0.0332243554294109344 -0.118362918496131897 0.0719319730997085571
0.0367076247930526733 -0.125091806054115295 0.072560437023639679
0.0436888448894023895 -0.131817936897277832 0.0735224038362503052
0.0506575852632522583 -0.138541147112846375 0.0745664834976196289
0.054155740886926651 -0.138541147112846375 0.0749084874987602234
0.0368252918124198914 -0.118520647287368774 0.070870518684387207
0.0403111949563026428 -0.125259369611740112 0.0715149492025375366
0.0472988411784172058 -0.131995335221290588 0.0725086256861686707
0.0508049726486206055 -0.131995335221290588 0.0728362202644348145
0.057775590568780899 -0.138728365302085876 0.073942236602306366
0.0612760894000530243 -0.138728365302085876 0.0743150860071182251
0.0647751167416572571 -0.138728365302085876 0.0747032091021537781
0.0682726204395294189 -0.138728365302085876 0.0751064419746398926
0.071768544614315033 -0.138728365302085876 0.0755247920751571655
0.0752628222107887268 -0.138728365302085876 0.0759583339095115662
0.0369415059685707092 -0.111927211284637451 0.0692014098167419434
0.0404354259371757507 -0.118678383529186249 0.0698250383138656616
0.043923892080783844 -0.125426948070526123 0.0704855918884277344
0.0544277913868427277 -0.132172733545303345 0.071854226291179657
0.0579363778233528137 -0.132172733545303345 0.0722126662731170654
0.0614435598254203796 -0.132172733545303345 0.0725862979888916016
0.0719560235738754272 -0.132172733545303345 0.0737982690334320068
0.0440546907484531403 -0.118836119771003723 0.0687956809997558594
0.0475456602871417999 -0.12559451162815094 0.0694722831249237061
0.0510635077953338623 -0.12559451162815094 0.0698008909821510315
0.0545800551772117615 -0.12559451162815094 0.0701447576284408569
0.0650825873017311096 -0.132350146770477295 0.0716520622372627258
0.0685918703675270081 -0.132350146770477295 0.0720567032694816589
0.0406557507812976837 -0.112222999334335327 0.0668278783559799194
0.0476830191910266876 -0.118993848562240601 0.0677824467420578003
0.0582184009253978729 -0.125762090086936951 0.0691792070865631104
0.0617372840642929077 -0.125762090086936951 0.0695540085434913635
0.06525469571352005 -0.125762090086936951 0.0699441581964492798
0.0407769307494163513 -0.10558774322271347 0.0651794150471687317
0.044286627322435379 -0.112370885908603668 0.0657989904284477234
0.0513203628361225128 -0.119151584804058075 0.0667854249477386475
0.054848548024892807 -0.119151584804058075 0.0671303868293762207
0.0583753734827041626 -0.119151584804058075 0.067490696907043457
0.0479265637695789337 -0.112518779933452606 0.0647863075137138367
0.0514624975621700287 -0.112518779933452606 0.0651166215538978577
0.0620291046798229218 -0.119309313595294952 0.0665415823459625244
0.0445169992744922638 -0.105863839387893677 0.0628224760293960571
0.0551152639091014862 -0.112666673958301544 0.0641360357403755188
0.058653656393289566 -0.112666673958301544 0.064497433602809906
0.0446429736912250519 -0.0991869047284126282 0.0611948110163211823
0.048168472945690155 -0.106001891195774078 0.0618103370070457458
0.0517158955335617065 -0.106001891195774078 0.0621417462825775146
0.0553801804780960083 -0.10613994300365448 0.0611617788672447205
0.0484087206423282623 -0.0994433164596557617 0.0588547028601169586
0.0519675575196743011 -0.0994433164596557617 0.0591871999204158783
0.064862765371799469 0.197602212429046631 -0.0922050923109054565
0.0732036381959915161 0.205824136734008789 -0.0920065119862556458
0.0773447826504707336 0.205824136734008789 -0.0915653407573699951
0.0527192391455173492 0.198369860649108887 -0.0972749888896942139
0.0403496921062469482 0.190625309944152832 -0.100213557481765747
0.0611994005739688873 0.206886813044548035 -0.0984988734126091003
0.0695304721593856812 0.206886813044548035 -0.0977024510502815247
0.0446097441017627716 0.190871387720108032 -0.101237155497074127
0.0571875013411045074 0.199137508869171143 -0.100883930921554565
0.0488788224756717682 0.19111749529838562 -0.102241970598697662
0.0531568489968776703 0.191363587975502014 -0.103227853775024414
0.0322499275207519531 0.183328911662101746 -0.105371646583080292
0.0364430136978626251 0.183328911662101746 -0.105107858777046204
0.0406350493431091309 0.183328911662101746 -0.104825839400291443
0.0449129603803157806 0.183565199375152588 -0.105849042534828186
0.0491077862679958344 0.183565199375152588 -0.105530336499214172
0.0576482713222503662 0.192101866006851196 -0.106837272644042969
0.0534957870841026306 0.184037789702415466 -0.107838504016399384
0.0324984900653362274 0.175969034433364868 -0.109964765608310699
0.0367093123495578766 0.175969034433364868 -0.109699808061122894
0.0409190729260444641 0.175969034433364868 -0.109416700899600983
0.0451277047395706177 0.175969034433364868 -0.109115287661552429
0.0493351444602012634 0.175969034433364868 -0.108795642852783203
0.0786780789494514465 0.216814890503883362 -0.105329342186450958
0.0661519542336463928 0.208746492862701416 -0.107340380549430847
0.062006831169128418 0.200672820210456848 -0.108432061970233917
0.0537358559668064117 0.176422029733657837 -0.111104279756546021
0.0453409217298030853 0.168329164385795593 -0.112358234822750092
0.070405125617980957 0.217090338468551636 -0.107522055506706238
0.0621688999235630035 0.192840144038200378 -0.110425800085067749
0.0369743406772613525 0.168545857071876526 -0.114269942045211792
0.0412017479538917542 0.168545857071876526 -0.113985590636730194
0.0496530905365943909 0.168545857071876526 -0.113361962139606476
0.0747286230325698853 0.21736578643321991 -0.108409702777862549
0.0539742149412631989 0.168762534856796265 -0.114346683025360107
0.0414010249078273773 0.160852596163749695 -0.117206647992134094
