ply
format ascii 1.0
element vertex 718
property float x
property float y
property float z
end_header
-0.189251035451889038 -0.13842397928237915 0.110686466097831726
-0.2002858966588974 -0.117307007312774658 0.11184585839509964
-0.196658819913864136 -0.131454929709434509 0.111205808818340302
-0.200538322329521179 -0.124465547502040863 0.110727414488792419
-0.193360492587089539 -0.138628840446472168 0.109074108302593231
-0.201383024454116821 -0.131827399134635925 0.106984727084636688
-0.202755749225616455 -0.14660152792930603 0.100902453064918518
-0.199707329273223877 -0.153994828462600708 0.0974709093570709229
-0.203716099262237549 -0.139755487442016602 0.0966473743319511414
-0.189300611615180969 -0.146936714649200439 0.0926598533987998962
-0.186038166284561157 -0.139857903122901917 0.0900188833475112915
-0.200364008545875549 -0.147048428654670715 0.0945122390985488892
-0.196705833077430725 -0.154236868023872375 0.0937437340617179871
-0.183026939630508423 -0.132851719856262207 0.0860833451151847839
-0.20101553201675415 -0.14006274938583374 0.0915767624974250793
-0.194251537322998047 -0.15472094714641571 0.0873730331659317017
-0.18388831615447998 -0.125890389084815979 0.0818476229906082153
-0.187470525503158569 -0.133131071925163269 0.0831012427806854248
-0.198220804333686829 -0.147607043385505676 0.0868012979626655579
-0.194603145122528076 -0.147607043385505676 0.0857338085770606995
-0.198630005121231079 -0.133224189281463623 0.0849260315299034119
-0.19132252037525177 -0.140472441911697388 0.0830670073628425598
-0.184744939208030701 -0.118871644139289856 0.0776351764798164368
0.0345360003411769867 0.0339772738516330719 0.0486919619143009186
-0.00296168215572834015 0.0267051532864570618 0.0489065647125244141
0.000787088356446474791 0.0267051532864570618 0.0487721860408782959
0.00453629763796925545 0.0267051532864570618 0.048655729740858078
0.00828588381409645081 0.0267051532864570618 0.048557184636592865
0.0120357843115925789 0.0267051532864570618 0.0484765619039535522
0.0157859362661838531 0.0267051532864570618 0.0484138503670692444
-0.185054406523704529 -0.111665256321430206 0.0761133730411529541
-0.195911839604377747 -0.126225650310516357 0.0796324238181114197
-0.188622638583183289 -0.126225650310516357 0.0775371193885803223
-0.00675310147926211357 0.0268168747425079346 0.0476907007396221161
0.0195266846567392349 0.0268168747425079346 0.0470001064240932465
0.0232819449156522751 0.0268168747425079346 0.046973150223493576
-0.18535885214805603 -0.104439012706279755 0.0746162012219429016
-0.196283027529716492 -0.11173044890165329 0.0779018551111221313
-0.188942655920982361 -0.119020655751228333 0.0759917125105857849
-0.0105535378679633141 0.0269285961985588074 0.0464931540191173553
0.0383283533155918121 0.03434034064412117 0.0446310900151729584
-0.0143629284575581551 0.0270403269678354263 0.0453140884637832642
0.0270372685045003891 0.0270403269678354263 0.0442261211574077606
0.000679085962474346161 0.019738195464015007 0.0443686544895172119
0.00444372091442346573 0.019738195464015007 0.0442517176270484924
0.0082087349146604538 0.019738195464015007 0.044152773916721344
0.0119740637019276619 0.019738195464015007 0.0440718308091163635
0.0157396458089351654 0.019738195464015007 0.0440088808536529541
0.0421109311282634735 0.0344613678753376007 0.0433256439864635468
-0.0181812085211277008 0.0271520484238862991 0.0441534146666526794
0.030806979164481163 0.0271520484238862991 0.042866043746471405
-0.00689195934683084488 0.0198406185954809189 0.0432879701256752014
-0.00312347617000341415 0.0198406185954809189 0.0431348755955696106
0.019495820626616478 0.0198406185954809189 0.0425944924354553223
0.0232665129005908966 0.0198406185954809189 0.0425675399601459503
-0.18595770001411438 0.0492125526070594788 0.0716715306043624878
-0.0220083128660917282 0.0272637698799371719 0.043011300265789032
0.0345862172544002533 0.0272637698799371719 0.0415241271257400513
-0.0107078319415450096 0.0199430380016565323 0.0420907437801361084
0.0270372685045003891 0.0199430380016565323 0.0411890670657157898
0.00438043056055903435 0.0126203661784529686 0.0412408150732517242
0.00815598946064710617 0.0126203661784529686 0.0411415547132492065
0.0119318673387169838 0.0126203661784529686 0.0410604476928710938
0.015707995742559433 0.0126203661784529686 0.0409972593188285828
0.0459268093109130859 0.0347034074366092682 0.0406699590384960175
0.0383749157190322876 0.027375493198633194 0.0402002036571502686
-0.0145326536148786545 0.0200454611331224442 0.0409120768308639526
-0.00320786819793283939 0.0127134798094630241 0.0401242971420288086
0.000571665761526674032 0.0127134798094630241 0.0399888791143894196
0.0194747187197208405 0.0127134798094630241 0.0395824722945690155
0.0497327819466590881 0.0348244346678256989 0.0394009873270988464
-0.0259112697094678879 0.0274872221052646637 0.0405210256576538086
-0.0183663666248321533 0.0201478861272335052 0.0397518835961818695
0.0346074961125850677 0.0201478861272335052 0.0384864285588264465
-0.00703007029369473457 0.012806599959731102 0.0389089919626712799
0.0232511647045612335 0.012806599959731102 0.03818560391664505
0.0270372685045003891 0.012806599959731102 0.0381765663623809814
0.00810367707163095474 0.00546354986727237701 0.0381550490856170654
0.0118900146335363388 0.00546354986727237701 0.0380736216902732849
-0.029760606586933136 0.0275989435613155365 0.0394165031611919403
0.0421922020614147186 0.0275989435613155365 0.0375257208943367004
-0.0222089029848575592 0.0202503111213445663 0.0386103279888629913
0.0384068414568901062 0.0202503111213445663 0.0371622666716575623
-0.0108612915500998497 0.0128997210413217545 0.0377121679484844208
0.0308281704783439636 0.0128997210413217545 0.0368158482015132904
0.000498424866236746311 0.00554736610502004623 0.0370026156306266785
0.00428886385634541512 0.00554736610502004623 0.0368848778307437897
0.0156622100621461868 0.00554736610502004623 0.036640360951423645
0.0194537900388240814 0.00554736610502004623 0.0365950874984264374
0.0535815134644508362 0.0350664742290973663 0.0367822535336017609
-0.0336185619235038757 0.0277106668800115585 0.0383307784795761108
0.0460044331848621368 0.0277106668800115585 0.0362383536994457245
-0.0147014642134308815 0.0129928411915898323 0.0365338176488876343
0.0346286073327064514 0.0129928411915898323 0.0354732871055603027
-0.00712423957884311676 0.00563118187710642815 0.0359232090413570404
-0.00332995620556175709 0.00563118187710642815 0.0357690751552581787
0.0232406985014677048 0.00563118187710642815 0.035197816789150238
0.00805179961025714874 -0.00173208222258836031 0.0351933389902114868
0.0498259365558624268 0.0278223883360624313 0.0349694602191448212
-0.0261273123323917389 0.0204551536589860916 0.0361202135682106018
0.0422347784042358398 0.0204551536589860916 0.0344871468842029572
-0.0185505282133817673 0.0130859613418579102 0.0353741869330406189
0.0384385101497173309 0.0130859613418579102 0.0341489650309085846
-0.0109659293666481972 0.00571499066427350044 0.0347265414893627167
0.0270372685045003891 0.00571499066427350044 0.0338186249136924744
0.0308386385440826416 0.00571499066427350044 0.0338277444243431091
0.000425794016337022185 -0.00165757769718766212 0.0340412259101867676
0.00422660540789365768 -0.00165757769718766212 0.0339231677353382111
0.0118293119594454765 -0.00165757769718766212 0.0337415188550949097
0.0156310778111219406 -0.00165757769718766212 0.0336779318749904633
0.0194330364465713501 -0.00165757769718766212 0.0336325801908969879
0.0612376704812049866 0.0426806099712848663 0.0346899889409542084
-0.0375665351748466492 0.0279341172426939011 0.0358980931341648102
-0.0299920830875635147 0.0205575786530971527 0.0350164100527763367
0.0460576601326465607 0.0205575786530971527 0.033199697732925415
-0.0224084090441465378 0.013179081492125988 0.03423319011926651
0.0422578155994415283 0.013179081492125988 0.0328428782522678375
-0.0148165719583630562 0.00579880690202116966 0.0335484333336353302
0.0346495434641838074 0.00579880690202116966 0.0324849449098110199
-0.00341296778060495853 -0.00158307317178696394 0.032807767391204834
0.0232303198426961899 -0.00158307317178696394 0.0322349891066551208
0.0574873164296150208 0.0354295410215854645 0.0328144058585166931
0.0536902137100696564 0.0280458405613899231 0.0323504097759723663
0.0498898178339004517 0.0206600036472082138 0.0319306440651416779
0.0384699143469333649 0.00588262267410755157 0.0311603806912899017
-0.00726081337779760361 -0.00150856166146695614 0.0315928645431995392
0.0270372685045003891 -0.00150856166146695614 0.0308554749935865402
0.0308490172028541565 -0.00150856166146695614 0.030864594504237175
0.00416487501934170723 -0.00890117418020963669 0.0309865716844797134
0.00797635596245527267 -0.00890117418020963669 0.0308863501995801926
0.0117881558835506439 -0.00890117418020963669 0.0308044441044330597
0.0156002119183540344 -0.00890117418020963669 0.0307406969368457794
-0.041532561182975769 0.0281575620174407959 0.0334850847721099854
-0.0339421667158603668 0.020762421190738678 0.0325649306178092957
-0.0263421833515167236 0.0133653227239847183 0.0317433960735797882
0.0461104549467563629 0.0133653227239847183 0.0301857553422451019
-0.0187336690723896027 0.00596643844619393349 0.0310205668210983276
0.0422996953129768372 0.00596643844619393349 0.029854215681552887
-0.0111176809296011925 -0.00143405713606625795 0.0303965974599123001
0.0346703007817268372 -0.00143405713606625795 0.0295216348022222519
0.000320175953675061464 -0.00883597787469625473 0.0297348760068416595
0.0194028560072183609 -0.00883597787469625473 0.0293246302753686905
0.0232200305908918381 -0.00883597787469625473 0.0292972754687070847
0.0537647530436515808 0.0208648461848497391 0.0293111912906169891
0.0499531738460063934 0.0134584428742527962 0.028916623443365097
-0.0226068161427974701 0.00605024769902229309 0.0298802107572555542
-0.0149834984913468361 -0.00135955249425023794 0.0292190480977296829
0.0385010577738285065 -0.00135955249425023794 0.0281969122588634491
-0.00735341152176260948 -0.00877077784389257431 0.028656909242272377
-0.00353367556817829609 -0.00877077784389257431 0.0285017378628253937
0.0270372685045003891 -0.00877077784389257431 0.0279175210744142532
0.0308593083173036575 -0.00877077784389257431 0.027926640585064888
0.00410367827862501144 -0.0161832589656114578 0.0280752535909414291
0.00792535580694675446 -0.0161832589656114578 0.0279747918248176575
0.0117473555728793144 -0.0161832589656114578 0.0278926454484462738
0.0155696095898747444 -0.0161832589656114578 0.0278287380933761597
0.0614213608205318451 0.0357926040887832642 0.028865911066532135
0.0576115734875202179 0.0283810142427682877 0.028381839394569397
-0.0379103757441043854 0.0209672711789608002 0.030133124440908432
-0.0302942246198654175 0.013551563024520874 0.0292731188237667084
0.0461628101766109467 0.006134063471108675 0.0271966904401779175
0.0423412211239337921 -0.00128504110034555197 0.0268906652927398682
-0.0112205715849995613 -0.00870558060705661774 0.027460804209113121
0.0346908867359161377 -0.00870558060705661774 0.0265834406018257141
0.000248775817453861237 -0.0161273721605539322 0.0268236380070447922
0.019382452592253685 -0.0161273721605539322 0.0264122709631919861
0.0232098288834095001 -0.0161273721605539322 0.0263848360627889633
0.0690818727016448975 0.0507482588291168213 0.0286007598042488098
0.0652752518653869629 0.0433321967720985413 0.0280272625386714935
-0.0456075854599475861 0.0284927356988191605 0.0297270379960536957
0.053838685154914856 0.0136446831747889519 0.0262967720627784729
-0.0265558641403913498 0.00621787924319505692 0.0273908153176307678
0.0500160083174705505 0.00621787924319505692 0.0259274784475564957
-0.0189157836139202118 -0.00121053645852953196 0.0266914218664169312
0.0385319367051124573 -0.00864038430154323578 0.0252586379647254944
-0.00361527875065803528 -0.0160714872181415558 0.0255906581878662109
0.0270372685045003891 -0.0160714872181415558 0.0250049233436584473
0.0040430137887597084 -0.0235036630183458328 0.0251893699169158936
0.00787480268627405167 -0.0235036630183458328 0.025088747963309288
0.011706911027431488 -0.0235036630183458328 0.0250062830746173859
0.0155392754822969437 -0.0235036630183458328 0.0249422136694192886
0.0615180283784866333 0.0286044590175151825 0.025800781324505806
0.0576967895030975342 0.0211721137166023254 0.0253419019281864166
-0.0342644639313220978 0.0137378033250570297 0.0268224384635686874
-0.0228041056543588638 -0.00113603193312883377 0.0255517046898603439
0.0462147295475006104 -0.00113603193312883377 0.0242327414453029633
-0.0151494750753045082 -0.00857518799602985382 0.0249143000692129135
-0.00748841883614659309 -0.0160155985504388809 0.0243763159960508347
0.0308743119239807129 -0.0160155985504388809 0.0236432477831840515
0.000178000627784058452 -0.023457089439034462 0.0239379145205020905
0.0193622279912233353 -0.023457089439034462 0.0235255081206560135
0.0653835684061050415 0.0361556708812713623 0.0249367747455835342
0.0577429309487342834 0.0138309169560670853 0.0236958768218755722
0.0539120025932788849 0.00638550426810979843 0.0233073867857456207
0.0500783100724220276 -0.00106152042280882597 0.0229635294526815414
0.0424016006290912628 -0.00850999075919389725 0.0225818362087011337
-0.0113705769181251526 -0.0159597136080265045 0.023180769756436348
0.0347208939492702484 -0.0159597136080265045 0.0222999677062034607
-0.00369616714306175709 -0.0234105158597230911 0.02270517498254776
0.0231949146836996078 -0.0234105158597230911 0.0221270378679037094
0.0692546889185905457 0.0437231473624706268 0.0241186823695898056
-0.0420691706240177155 0.0213769637048244476 0.024989645928144455
0.061613917350769043 0.0213769637048244476 0.0227605253458023071
-0.0305951274931430817 0.00646932004019618034 0.0235534235835075378
-0.0190968569368124008 -0.00844479445368051529 0.0223870724439620972
0.0462662018835544586 -0.00844479445368051529 0.0212940666824579239
0.038576953113079071 -0.0159038286656141281 0.020975084975361824
-0.0075794183649122715 -0.023363940417766571 0.0214910730719566345
0.0270372685045003891 -0.023363940417766571 0.0207468047738075256
0.030884426087141037 -0.023363940417766571 0.0207560043781995773
0.000107856852991972119 -0.0308249536901712418 0.0210780259221792221
0.0039540780708193779 -0.0308249536901712418 0.0209585279226303101
0.00780068617314100266 -0.0308249536901712418 0.0208574254065752029
0.0116476165130734444 -0.0308249536901712418 0.02077472023665905
0.0154948038980364799 -0.0308249536901712418 0.0207104124128818512
0.0731310322880744934 0.0513066947460174561 0.0233465004712343216
0.06549101322889328 0.0289396326988935471 0.0218710042536258698
-0.038334328681230545 0.014017157256603241 0.0230250377207994461
0.0616658441722393036 0.014017157256603241 0.0211140196770429611
0.0578267388045787811 0.00655313581228256226 0.0207061730325222015
-0.0268355067819356918 -0.0009125113720074296 0.0216945558786392212
0.0539847053587436676 -0.0009125113720074296 0.0203431975096464157
0.050140082836151123 -0.00837959721684455872 0.020024934783577919
-0.0153144877403974533 -0.0158479437232017517 0.0206345058977603912
0.04244241863489151 -0.0158479437232017517 0.0196687579154968262
0.0347411222755908966 -0.0233173668384552002 0.0194126442074775696
-0.00377633189782500267 -0.0307876914739608765 0.0198453664779663086
0.0193325802683830261 -0.0307876914739608765 0.0192933864891529083
0.0231848917901515961 -0.0307876914739608765 0.0192657113075256348
0.0770122408866882324 0.0589061267673969269 0.022620469331741333
0.0693738758563995361 0.0365187376737594604 0.0210273955017328262
-0.0499016977846622467 0.0290513541549444199 0.0232608355581760406
0.0655496418476104736 0.0215818062424659729 0.0201983433216810226
-0.0345854349434375763 0.00663695205003023148 0.0211036223918199539
0.061716962605714798 0.00663695205003023148 0.0194933507591485977
0.0578714422881603241 -0.000838006788399070501 0.0191114190965890884
-0.0230626482516527176 -0.0083143971860408783 0.0198792815208435059
0.0540231764316558838 -0.0083143971860408783 0.0187744386494159698
-0.0192192811518907547 -0.0157920531928539276 0.0194768719375133514
0.0463172309100627899 -0.0157920531928539276 0.0183809883892536163
-0.0115196993574500084 -0.0232707932591438293 0.0189258512109518051
0.0386072956025600433 -0.0232707932591438293 0.018087681382894516
0.0270372685045003891 -0.0307504311203956604 0.0178853981196880341
0.00389449670910835266 -0.0382307916879653931 0.0181241557002067566
0.00775103457272052765 -0.0382307916879653931 0.0180228129029273987
0.011607893742620945 -0.0382307916879653931 0.0179399475455284119
0.0154650118201971054 -0.0382307916879653931 0.0178753994405269623
0.073262140154838562 0.0441141016781330109 0.0202298574149608612
0.0694393813610076904 0.0291630774736404419 0.019328579306602478
0.0656073614954948425 0.0142033984884619713 0.0185513589531183243
-0.0308228060603141785 -0.000763495336286723614 0.019225558266043663
0.05020131915807724 -0.0157361682504415512 0.0171119365841150284
-0.0154257174581289291 -0.0232242196798324585 0.0177496615797281265
0.0424828790128231049 -0.0232242196798324585 0.0167813561856746674
-0.00771282054483890533 -0.0307131726294755936 0.0172613486647605896
0.0308992508798837662 -0.0307131726294755936 0.0165234822779893875
4.73018826596671715e-06 -0.0382028445601463318 0.0168732590973377228
0.0193127170205116272 -0.0382028445601463318 0.0164581332355737686
-0.0462650768458843231 0.0217866543680429459 0.0198677629232406616
0.0695038884878158569 0.0217866543680429459 0.0176554396748542786
-0.0424318127334117889 0.0142965186387300491 0.0192482732236385345
0.0656641721725463867 0.00680457660928368568 0.0169302895665168762
0.0618104524910449982 -0.000688990752678364515 0.0165290813893079758
-0.0270467810332775116 -0.00818400364369153976 0.0173910055309534073
0.0579538196325302124 -0.00818400364369153976 0.016172824427485466
-0.0231952853500843048 -0.0156802833080291748 0.016969241201877594
0.0540946200489997864 -0.0156802833080291748 0.0158615205436944962
0.0463678054511547089 -0.0231776461005210876 0.0154936658218502998
-0.0116199115291237831 -0.0306759104132652283 0.0160665232688188553
0.0347707755863666534 -0.0306759104132652283 0.0151800420135259628
-0.00389418867416679859 -0.038174901157617569 0.0156410802155733109
0.0772176980972290039 0.0518651343882083893 0.0181127972900867462
0.0733922123908996582 0.0368818044662475586 0.0171378515660762787
-0.0386753827333450317 0.0068883928470313549 0.0173068605363368988
-0.0348283015191555023 -0.00061448622727766633 0.0167762357741594315
0.0618599392473697662 -0.00811880733817815781 0.0149600813165307045
0.0579970702528953552 -0.0156243983656167984 0.0146299004554748535
-0.0193982291966676712 -0.0231310706585645676 0.0152229946106672287
0.0502620115876197815 -0.0231310706585645676 0.0142246130853891373
0.0386517755687236786 -0.0306386500597000122 0.0138551592826843262
0.0425229743123054504 -0.0306386500597000122 0.0139198675751686096
-0.00780219119042158127 -0.0381469540297985077 0.0144276972860097885
0.0231653545051813126 -0.0381469540297985077 0.0136879095807671547
0.00380664807744324207 -0.0456557981669902802 0.0139450635761022568
0.00767782330513000488 -0.0456557981669902802 0.0138433212414383888
0.0734637156128883362 0.0294982511550188065 0.0154381562024354935
0.0696201696991920471 0.0144827589392662048 0.0146396588534116745
0.0657680705189704895 -0.000539974716957658529 0.0139660192653536797
-0.0310491751879453659 -0.00805361103266477585 0.0149225685745477676
0.268460333347320557 -0.00805361103266477585 0.0493722409009933472
0.0619085989892482758 -0.0155685096979141235 0.013417157344520092
0.0541654303669929504 -0.0230844970792531967 0.0129743572324514389
-0.0155887659639120102 -0.0306013915687799454 0.0135208992287516594
0.0464179255068302155 -0.0306013915687799454 0.0126321781426668167
0.0502933450043201447 -0.0306013915687799454 0.0127340797334909439
0.0270372685045003891 -0.0381190069019794464 0.0123074362054467201
0.0309139862656593323 -0.0381190069019794464 0.0123166348785161972
0.0347906388342380524 -0.0381190069019794464 0.0123444702476263046
-9.77607924141921103e-05 -0.0456371679902076721 0.0126944873481988907
0.0115301115438342094 -0.0456371679902076721 0.0123888617381453514
0.0154066728428006172 -0.0456371679902076721 0.012324073351919651
0.0192834306508302689 -0.0456371679902076721 0.0122777614742517471
0.0231603179126977921 -0.0456371679902076721 0.0122500071302056313
0.0811874642968177795 0.0596506185829639435 0.016043568029999733
0.077359810471534729 0.0446353703737258911 0.0149948755279183388
0.0735341310501098633 0.0220939218997955322 0.0137641355395317078
0.0696826949715614319 0.00705601740628480911 0.0130179496482014656
0.0658230632543563843 -0.00798841379582881927 0.0123967006802558899
-0.0272568129003047943 -0.0155126238241791725 0.0131126521155238152
-0.0233891457319259644 -0.0230379234999418259 0.0127159235998988152
0.0580779984593391418 -0.0230379234999418259 0.0117429774254560471
0.0542019903659820557 -0.0305641293525695801 0.0114838238805532455
-0.0117672272026538849 -0.0380910597741603851 0.0118631161749362946
0.0386815741658210754 -0.0380910597741603851 0.011019587516784668
0.0464435778558254242 -0.0380910597741603851 0.0111678801476955414
0.0348007157444953918 -0.0456185378134250641 0.0109064877033233643
0.011510336771607399 -0.0531463772058486938 0.010977674275636673
0.0774385035037994385 0.0372448712587356567 0.0132684642449021339
0.0736034661531448364 0.0146690001711249352 0.0121161108836531639
-0.0427929535508155823 0.00713983364403247833 0.0135308178141713142
0.0697442144155502319 -0.000390965607948601246 0.0114223146811127663
0.0658771470189094543 -0.0154567388817667961 0.0108536165207624435
0.0619996450841426849 -0.022991349920630455 0.0105303945019841194
-0.0195760969072580338 -0.030526868999004364 0.0109947910532355309
0.0581197813153266907 -0.030526868999004364 0.0102524440735578537
0.0425819158554077148 -0.0380631163716316223 0.00971334055066108704
0.0503529421985149384 -0.0380631163716316223 0.00989898759871721268
0.0464687608182430267 -0.0455999076366424561 0.00973005779087543488
0.00371934915892779827 -0.0531370602548122406 0.00979212671518325806
0.00760507257655262947 -0.0531370602548122406 0.00968998484313488007
0.0813418030738830566 0.0524235740303993225 0.0128998104482889175
0.0775160118937492371 0.029833424836397171 0.0115678086876869202
-0.0467389859259128571 0.014762120321393013 0.0127611951902508736
-0.0390149913728237152 -0.000316461053444072604 0.0116128409281373024
-0.0351465269923210144 -0.0078580174595117569 0.0111062116920948029
0.0698047354817390442 -0.0078580174595117569 0.00985275581479072571
-0.0312742218375205994 -0.0154008530080318451 0.0106447739526629448
-0.0273984018713235855 -0.0229447744786739349 0.0102285286411643028
0.0659303069114685059 -0.0229447744786739349 0.00933684874325990677
0.0620466545224189758 -0.0304896067827939987 0.00903994124382734299
-0.015750812366604805 -0.038035169243812561 0.00931797176599502563
0.0542715154588222504 -0.038035169243812561 0.00864897109568119049
-0.00797717832028865814 -0.0455812737345695496 0.00887941010296344757
0.0503831617534160614 -0.0455812737345695496 0.0084612453356385231
-0.00408928422257304192 -0.0531277433037757874 0.00868136528879404068
-0.000199605390662327409 -0.0531277433037757874 0.00854195095598697662
-0.0545440465211868286 0.0299451462924480438 0.0127256019040942192
-0.0506896674633026123 0.0224011968821287155 0.0120380446314811707
0.0737292692065238953 0.00730746518820524216 0.00912560615688562393
0.0698642358183860779 -0.0153449643403291702 0.00830951239913702011
-0.0235818382352590561 -0.0304523482918739319 0.00848828069865703583
0.0581992417573928833 -0.0380072221159934998 0.00741783203557133675
-0.00412658229470252991 -0.0455626435577869415 0.00735088391229510307
0.0543067790567874908 -0.0455626435577869415 0.00721130892634391785
-0.00802166759967803955 -0.0531184300780296326 0.00746886292472481728
-0.062345799058675766 0.0451566390693187714 0.0128732547163963318
0.0814949274063110352 0.0451566390693187714 0.0097807692363858223
-0.0584981739521026611 0.0376079380512237549 0.0120949149131774902
0.0776546746492385864 0.0225036144256591797 0.00852555315941572189
0.0737964138388633728 -0.000167445017723366618 0.007529411930590868
-0.0391900353133678436 -0.00772762391716241837 0.00867792591452598572
-0.0353098176419734955 -0.0152890793979167938 0.00819681212306022644
-0.0314259305596351624 -0.0228516273200511932 0.00776097038760781288
0.066030554473400116 -0.0304150879383087158 0.00647648051381111145
0.0621360465884208679 -0.0379792749881744385 0.00620564911514520645
0.081579744815826416 0.0377289615571498871 0.00805291812866926193
0.0777298435568809509 0.0150414742529392242 0.00687648868188261986
-0.0470291674137115479 0.00747509021311998367 0.00840989407151937485
-0.0431525595486164093 -9.29404559428803623e-05 0.00783767644315958023
0.0738624557852745056 -0.0076624271459877491 0.00595945306122303009
0.0699755251407623291 -0.0228050537407398224 0.00542306900024414062
-0.0276059191673994064 -0.0303778257220983505 0.00600152555853128433
-0.0198104958981275558 -0.0379513315856456757 0.00542282918468117714
-0.0159118566662073135 -0.045525379478931427 0.00514119956642389297
-0.0120096784085035324 -0.045525379478931427 0.00494539458304643631
0.058277960866689682 -0.045525379478931427 0.00460961461067199707
0.0816632956266403198 0.0302803199738264084 0.00635098293423652649
-0.0548685081303119659 0.0227084644138813019 0.00832550972700119019
-0.0509969182312488556 0.0151345944032073021 0.0076621081680059433
0.0778038129210472107 0.00755890598520636559 0.00525349937379360199
0.0739273875951766968 -0.0151773085817694664 0.00441588927060365677
-0.0354716479778289795 -0.0227584801614284515 0.00531340856105089188
-0.0237733479589223862 -0.0379233844578266144 0.0042865523137152195
0.0622246041893959045 -0.045506749302148819 0.00339775159955024719
0.0778765901923179626 5.60755761398468167e-05 0.00365682528354227543
-0.0433379299938678741 -0.00753203406929969788 0.00490292208269238472
-0.0394451022148132324 -0.0151214199140667915 0.00440141186118125916
0.0739912092685699463 -0.0227119047194719315 0.00289880088530480862
-0.0316482596099376678 -0.0303033068776130676 0.00353476707823574543
0.0661778971552848816 -0.0378954373300075531 0.00227227318100631237
-0.0199285540729761124 -0.0454881191253662109 0.00261629163287580013
0.267197459936141968 -0.0758606716990470886 0.0370270907878875732
-0.0589454062283039093 0.0305037647485733032 0.00630699098110198975
0.0818126946687698364 0.0229133069515228271 0.00330792763270437717
-0.0473176799714565277 0.00013058014155831188 0.00408354867249727249
0.0779481679201126099 -0.00746683729812502861 0.00208646641112864017
-0.0239012446254491806 -0.0454694889485836029 0.0014805749524384737
0.267500787973403931 -0.0682769417762756348 0.0356604568660259247
-0.0513024143874645233 0.00781034678220748901 0.00331096723675727844
0.0701950788497924805 -0.037839546799659729 -0.000271191442152485251
-0.0436080135405063629 -0.0149537632241845131 0.000627047731541097164
-0.0396986380219459534 -0.0225721839815378189 0.000150573046994395554
-0.0357855930924415588 -0.0301915239542722702 -0.0002802298404276371
0.0702442526817321777 -0.0301915239542722702 -0.00154656311497092247
-0.0279465727508068085 -0.0378115996718406677 -0.000937472155783325434
0.268092989921569824 -0.0606743954122066498 0.032992292195558548
0.271895229816436768 -0.0606743954122066498 0.0341529659926891327
-0.0553924217820167542 0.015600196085870266 0.00122062151785939932
-0.0476044975221157074 -0.00727124372497200966 -0.000217441076529212296
0.0742267519235610962 -0.0301542636007070541 -0.00270027644000947475
0.268384724855422974 -0.0530439019203186035 0.0316778868436813354
-0.0516061596572399139 0.000428605300839990377 -0.0010150582529604435
-0.03201323002576828 -0.0377557091414928436 -0.00340279075317084789
-0.0594961978495121002 0.0234254226088523865 -0.000821092980913817883
-0.0477984808385372162 -0.0147861037403345108 -0.00312620028853416443
-0.0438764728605747223 -0.0224324613809585571 -0.00362315122038125992
-0.0634759142994880676 0.0388181619346141815 -0.00111296074464917183
-0.0557132810354232788 0.00822941958904266357 -0.00313059939071536064
0.0822533369064331055 0.000577621336560696363 -0.00566782522946596146
-0.0518121980130672455 -0.00707565387710928917 -0.00394965289160609245
0.078330501914024353 -0.0147302187979221344 -0.00630187150090932846
-0.0400378629565238953 -0.0376998148858547211 -0.00553696881979703903
-0.0360980778932571411 -0.0376998148858547211 -0.00584803288802504539
0.269259929656982422 -0.0453577004373073578 0.0277346745133399963
-0.0440569110214710236 -0.0300052240490913391 -0.00647975970059633255
0.0823763236403465271 0.00839704461395740509 -0.00817305687814950943
-0.0520164147019386292 -0.0146184442564845085 -0.00685809226706624031
0.269834548234939575 -0.037643924355506897 0.0251456182450056076
0.0863511785864830017 0.0315092839300632477 -0.00840989407151937485
0.0824307873845100403 0.0161589104682207108 -0.00928237847983837128
-0.0560322701930999756 0.000801141897682100534 -0.00745654478669166565
-0.0402769558131694794 -0.0299307014793157578 -0.00954569131135940552
0.270108669996261597 -0.0299307014793157578 0.0239105597138404846
0.273987352848052979 -0.052988007664680481 0.0248831845819950104
0.0903147682547569275 0.0546573251485824585 -0.00838077906519174576
-0.067827470600605011 0.0469810813665390015 -0.00575292995199561119
-0.0639437586069107056 0.0316210091114044189 -0.00690280413255095482
-0.0600451827049255371 0.0162520315498113632 -0.00792590063065290451
0.270376890897750854 -0.0221995953470468521 0.022702215239405632
0.274277716875076294 -0.0452831760048866272 0.0235966946929693222
0.0942928194999694824 0.0701594725251197815 -0.00856186728924512863
0.0864770263433456421 0.0394232757389545441 -0.0108020259067416191
0.270451277494430542 0.0163451526314020157 0.0223669949918985367
-0.0444084294140338898 -0.0375600829720497131 -0.0120449233800172806
0.270190417766571045 0.0703176483511924744 0.0235423054546117783
0.0905207991600036621 0.0627774745225906372 -0.0120518021285533905
0.0866013467311859131 0.047372031956911087 -0.0131652029231190681
-0.0603814423084259033 0.00881611648947000504 -0.0122776813805103302
-0.0564500764012336731 -0.00661927368491888046 -0.0131224906072020531
-0.0485458150506019592 -0.0297816582024097443 -0.0143328336998820305
0.0945082306861877441 0.0783384963870048523 -0.0121736200526356697
0.0866523236036300659 0.0552157647907733917 -0.0141341490671038628
-0.0683178603649139404 0.0397863388061523438 -0.011567569337785244
-0.0644096434116363525 0.0243472326546907425 -0.0126686515286564827
-0.0486287660896778107 -0.0220132991671562195 -0.0155768515542149544
0.0985242277383804321 0.086216360330581665 -0.0126981660723686218
0.0906485915184020996 0.0707921981811523438 -0.0143285943195223808
-0.0723298788070678711 0.0553553737699985504 -0.0116997053846716881
0.0946405678987503052 0.0863930955529212952 -0.0143923433497548103
0.0906982123851776123 0.0786734223365783691 -0.0152127565816044807
0.0867735967040061951 0.0632241666316986084 -0.016439417377114296
-0.0646531879901885986 0.0168107543140649796 -0.0156827513128519058
0.0868215560913085938 0.0711085647344589233 -0.0173511728644371033
-0.0608211979269981384 0.00139719224534928799 -0.0179688222706317902
-0.0528903454542160034 -0.0218735765665769577 -0.0193051435053348541
0.0987484678626060486 0.0944812595844268799 -0.0162482503801584244
0.0908227041363716125 0.0867465808987617493 -0.0174309182912111282
0.0868680253624916077 0.0790083408355712891 -0.0182343758642673492
0.0948523283004760742 0.0946672782301902771 -0.0179428271949291229
-0.0689211562275886536 0.0326265208423137665 -0.018720848485827446
0.0988847985863685608 0.102602764964103699 -0.0184065848588943481
0.0909455195069313049 0.0948532968759536743 -0.0196191668510437012
-0.0571793057024478912 -0.0217338539659976959 -0.0230116806924343109
0.0949810594320297241 0.102798052132129669 -0.0201011616736650467
-0.0730822831392288208 0.0484145767986774445 -0.0202616918832063675
-0.0652252808213233948 0.00948663055896759033 -0.0227628443390130997
-0.0572688579559326172 -0.0138919251039624214 -0.0242260228842496872
0.0910666510462760925 0.102993346750736237 -0.021777421236038208
-0.0692925900220870972 0.0251666158437728882 -0.0231250189244747162
0.0991050973534584045 0.110961958765983582 -0.0218945201486349106
0.103101015090942383 0.110961958765983582 -0.0215406641364097595
0.0951891019940376282 0.111166499555110931 -0.0235893372446298599
-0.069546923041343689 0.0175557099282741547 -0.0261406395584344864
-0.0615754351019859314 -0.00590210314840078354 -0.0277298744767904282
-0.0774939879775047302 0.0645642504096031189 -0.0243873540312051773
0.0913387909531593323 0.111575603485107422 -0.02662639319896698
-0.0935769602656364441 0.0961554050445556641 -0.0229624882340431213
-0.0659056231379508972 0.00214225845411419868 -0.0311826970428228378
-0.0739523917436599731 0.0414806455373764038 -0.030163278803229332
-0.0660326853394508362 -0.00564131652936339378 -0.0327552147209644318
0.103603221476078033 0.120014004409313202 -0.0290713943541049957
-0.0780304223299026489 0.0573099032044410706 -0.0302552636712789536
0.0916090682148933411 0.120227806270122528 -0.031442008912563324
0.0956384912133216858 0.120227806270122528 -0.0311239082366228104
0.0996667668223381042 0.120227806270122528 -0.0307865273207426071
-0.0781915634870529175 0.0495874322950839996 -0.0320179872214794159
-0.0742222145199775696 0.033855486661195755 -0.03323369100689888
0.091801173985004425 0.12872663140296936 -0.0348647572100162506
0.103921875357627869 0.12872663140296936 -0.0338497385382652283
-0.0824407488107681274 0.0815203115344047546 -0.0338022299110889435
-0.0746351704001426697 0.018393784761428833 -0.0379331670701503754
0.0999686345458030701 0.12894970178604126 -0.0355656705796718597
-0.0945181176066398621 0.105336748063564301 -0.0318737737834453583
-0.086560957133769989 0.0895744562149047852 -0.0341111309826374054
-0.0707189887762069702 0.0105762165039777756 -0.0400378331542015076
0.0960046499967575073 0.129172772169113159 -0.0372629687190055847
-0.0945978462696075439 0.113416522741317749 -0.0326286777853965759
-0.0867454409599304199 0.0818552449345588684 -0.0359838381409645081
-0.0829178020358085632 0.0662021338939666748 -0.0388259701430797577
-0.0909003689885139465 0.105922602117061615 -0.0365085452795028687
0.0921439081430435181 0.137741044163703918 -0.0409714244306087494
0.108436144888401031 0.12984195351600647 -0.0402596332132816315
-0.0910971537232398987 0.098201557993888855 -0.0384366773068904877
-0.087194785475730896 0.074430413544178009 -0.0405453406274318695
-0.0792211294174194336 0.0426908694207668304 -0.0432802103459835052
-0.0752079859375953674 0.0268053840845823288 -0.0444516018033027649
-0.0951029956340789795 0.122152067720890045 -0.0374116599559783936
0.10857836902141571 0.138205647468566895 -0.0422852709889411926
-0.095176301896572113 0.130288064479827881 -0.0381057783961296082
-0.083513997495174408 0.0508906058967113495 -0.0451042056083679199
0.100525557994842529 0.138437971472740173 -0.0443828143179416656
0.104600235819816589 0.138437971472740173 -0.0440220795571804047
0.104642786085605621 0.146601557731628418 -0.0446600429713726044
0.0965306386351585388 0.138670280575752258 -0.0460820309817790985
-0.0917594507336616516 0.0830275043845176697 -0.0449259951710700989
0.108813583850860596 0.146843120455741882 -0.0456353090703487396
-0.0919481739401817322 0.0752213373780250549 -0.0467751845717430115
-0.0879523232579231262 0.0592644400894641876 -0.0482354052364826202
0.0926369726657867432 0.147326216101646423 -0.0497566498816013336
0.10082293301820755 0.147326216101646423 -0.0490907691419124603
0.0968114733695983887 0.147567763924598694 -0.0507904663681983948
-0.0924112647771835327 0.067691117525100708 -0.0513125322759151459
-0.0802487581968307495 0.0356430709362030029 -0.0545213185250759125
0.0886455848813056946 0.155781790614128113 -0.0520233660936355591
0.092747122049331665 0.155781790614128113 -0.0517192594707012177
0.0968475639820098877 0.155781790614128113 -0.0513955578207969666
0.096881866455078125 0.164009079337120056 -0.0519707351922988892
0.101032465696334839 0.156032577157020569 -0.0524080172181129456
0.109236717224121094 0.156032577157020569 -0.0516618303954601288
-0.0886620506644248962 0.05193314328789711 -0.0554401129484176636
-0.0845834165811538696 0.0439010895788669586 -0.0563657879829406738
0.100995302200317383 0.18848063051700592 -0.0518196411430835724
-0.0845827236771583557 0.0924023240804672241 -0.0563585087656974792
-0.0848088264465332031 0.0764867961406707764 -0.0587395243346691132
0.105276279151439667 0.18905600905418396 -0.0541595444083213806
-0.0891134887933731079 0.0685845091938972473 -0.0600228123366832733
-0.0850243717432022095 0.0605209171772003174 -0.0610092766582965851
-0.0849165692925453186 0.100991792976856232 -0.0598741210997104645
-0.0846716910600662231 0.149500176310539246 -0.057295382022857666
0.109859459102153778 0.190494343638420105 -0.0605311207473278046
0.110395453870296478 0.183844089508056641 -0.068165116012096405
0.110550142824649811 0.176018819212913513 -0.0703683197498321533
0.110702954232692719 0.168169379234313965 -0.0725447311997413635
-0.0167507566511631012 0.187327086925506592 -0.130331099033355713
-0.0168144330382347107 0.196374908089637756 -0.132147982716560364
-0.0124313542619347572 0.196374908089637756 -0.132346987724304199
-0.0213535334914922714 0.197210296988487244 -0.135993614792823792
-0.02586330845952034 0.197767212986946106 -0.138461887836456299
-0.0304529275745153427 0.198602601885795593 -0.142262563109397888
-0.0350700542330741882 0.199437990784645081 -0.146040454506874084
-0.049004923552274704 0.201665684580802917 -0.155881568789482117
-0.0537264980375766754 0.202501073479652405 -0.159566357731819153
-0.00901958346366882324 0.167858093976974487 -0.167198345065116882
-0.0135498279705643654 0.159113436937332153 -0.167809918522834778
-0.0583849586546421051 0.203058019280433655 -0.161874815821647644
-0.00456019677221775055 0.177098825573921204 -0.16925165057182312
-0.0181524418294429779 0.159578070044517517 -0.170325219631195068
-0.0226980000734329224 0.150809630751609802 -0.170863524079322815
-0.00911069847643375397 0.17734961211681366 -0.170448645949363708
-0.0136533873155713081 0.168582752346992493 -0.171093404293060303
-0.0631558746099472046 0.203893378376960754 -0.165512159466743469
-0.0136701073497533798 0.177600398659706116 -0.171623632311820984
-0.0182198081165552139 0.168824300169944763 -0.172247365117073059
-0.0227733571082353592 0.160042688250541687 -0.17281806468963623
-0.0273303519934415817 0.151255741715431213 -0.173335731029510498
-0.0136857964098453522 0.186630770564079285 -0.172120988368988037
-0.00916272588074207306 0.186630770564079285 -0.172304704785346985
0.00440981099382042885 0.186630770564079285 -0.172726228833198547
-0.0182383563369512558 0.177851185202598572 -0.17277662456035614
-0.0227949917316436768 0.169065847992897034 -0.173379242420196533
-0.013700445182621479 0.195673644542694092 -0.172585383057594299
-0.00917574763298034668 0.195673644542694092 -0.17276918888092041
-0.0182557534426450729 0.186890795826911926 -0.173273012042045593
-0.00467235827818512917 0.186890795826911926 -0.17382475733757019
-0.000143397483043372631 0.186890795826911926 -0.1739654541015625
-0.0228153634816408157 0.178101971745491028 -0.173907548189163208
-0.0274124853312969208 0.160507291555404663 -0.175288259983062744
-0.0319808535277843475 0.151701867580413818 -0.1757851243019104
-0.0679536908864974976 0.204728767275810242 -0.169125273823738098
-0.0228867921978235245 0.187410846352577209 -0.175760015845298767
-0.0274931732565164566 0.169790506362915039 -0.177206233143806458
-0.0320697538554668427 0.160971924662590027 -0.177735656499862671
-0.0229045823216438293 0.196481391787528992 -0.176221534609794617
-0.0275152828544378281 0.17885434627532959 -0.177731812000274658
-0.00930186640471220016 0.205564171075820923 -0.177268221974372864
0.0133982440456748009 0.196750625967979431 -0.178793713450431824
-0.0321570783853530884 0.170273616909980774 -0.179651558399200439
-0.127448230981826782 0.161436527967453003 -0.169727489352226257
-0.036745075136423111 0.161436527967453003 -0.180160179734230042
-0.0048168557696044445 0.197019875049591064 -0.179716348648071289
0.00883323699235916138 0.197019875049591064 -0.180075079202651978
-0.0275930855423212051 0.188190892338752747 -0.179581254720687866
-0.0321809537708759308 0.179355904459953308 -0.180175378918647766
-0.0276123732328414917 0.197289109230041504 -0.18003980815410614
-0.0368390306830406189 0.170756712555885315 -0.182073995471000671
-0.0414383672177791595 0.161901146173477173 -0.182561755180358887
0.0133652379736304283 0.20639955997467041 -0.181934431195259094
0.00423524994403123856 0.197558343410491943 -0.18269173800945282
-0.0322651490569114685 0.18871094286441803 -0.182022571563720703
-0.0368646532297134399 0.179857507348060608 -0.182595908641815186
-0.26446068286895752 -0.0785435512661933899 -0.151388689875602722
0.013361114077270031 0.21552199125289917 -0.182326912879943848
0.00878924410790205002 0.206678017973899841 -0.183214589953422546
-0.0322859585285186768 0.197827592492103577 -0.182479128241539001
-0.000352842092979699373 0.197827592492103577 -0.183929115533828735
-0.0415389388799667358 0.17123982310295105 -0.184473410248756409
-0.178136184811592102 0.135712221264839172 -0.16785430908203125
-0.169215843081474304 0.126817956566810608 -0.170441851019859314
-0.00492709269747138023 0.206956461071968079 -0.184211060404777527
0.00420405250042676926 0.206956461071968079 -0.184472858905792236
-0.0369552299380302429 0.189230963587760925 -0.184440940618515015
-0.16037064790725708 0.127013236284255981 -0.173618718981742859
-0.0416376776993274689 0.180609852075576782 -0.186350271105766296
-0.046256721019744873 0.171722933650016785 -0.186849623918533325
-0.000418765062931925058 0.207513406872749329 -0.187065184116363525
0.0178844407200813293 0.207513406872749329 -0.187414959073066711
-0.037044081836938858 0.198635339736938477 -0.186250850558280945
-0.0416632369160652161 0.189751014113426208 -0.186836183071136475
-0.0509113632142543793 0.171964481472969055 -0.187845528125762939
0.0178817193955183029 0.216672688722610474 -0.187803462147712708
-0.0463619343936443329 0.181111454963684082 -0.188724249601364136
-0.165496170520782471 0.127599090337753296 -0.17674487829208374
-0.0417583324015140533 0.199173822999000549 -0.188643783330917358
-0.0417803376913070679 0.208348795771598816 -0.189062029123306274
-0.0464651845395565033 0.190531075000762939 -0.19056384265422821
-0.124407589435577393 0.172689124941825867 -0.183137416839599609
-0.0511848591268062592 0.181863799691200256 -0.192431032657623291
-0.129129111766815186 0.172930672764778137 -0.183750182390213013
-0.192993104457855225 0.155047759413719177 -0.172738954424858093
-0.143109962344169617 0.146098405122756958 -0.18373049795627594
-0.0465664491057395935 0.199981540441513062 -0.192368164658546448
-0.0512135550379753113 0.191051095724105835 -0.19291214644908905
-0.133956864476203918 0.164224237203598022 -0.185144886374473572
0.0224216971546411514 0.164224237203598022 -0.198615923523902893
-0.138622120022773743 0.155270814895629883 -0.185138329863548279
-0.184274330735206604 0.146312206983566284 -0.176872685551643372
-0.152514070272445679 0.137348607182502747 -0.184115871787071228
-0.267196029424667358 -0.042637556791305542 -0.163310393691062927
-0.0465897545218467712 0.209184184670448303 -0.192783370614051819
-0.055949334055185318 0.182365402579307556 -0.194757804274559021
0.0224141869693994522 0.155493885278701782 -0.20075969398021698
-0.175507709383964539 0.137553155422210693 -0.180896371603012085
-0.1572674959897995 0.137553155422210693 -0.184592515230178833
-0.189134851098060608 0.155716955661773682 -0.177789732813835144
-0.148213893175125122 0.14673982560634613 -0.186945602297782898
-0.171156853437423706 0.13775770366191864 -0.183195486664772034
-0.166593670845031738 0.13775770366191864 -0.184131398797035217
-0.162027254700660706 0.13775770366191864 -0.18504546582698822
-0.267761290073394775 -0.0245279353111982346 -0.165773883461952209
-0.0560651794075965881 0.19183117151260376 -0.196591809391975403
-0.0607314221560955048 0.182866960763931274 -0.197060912847518921
-0.143716558814048767 0.155940011143684387 -0.188375115394592285
-0.180373936891555786 0.146953627467155457 -0.181890353560447693
-0.0514825731515884399 0.201058521866798401 -0.197422608733177185
-0.125250309705734253 0.18311774730682373 -0.190383628010749817
-0.134522244334220886 0.174138426780700684 -0.189724951982498169
-0.139207944273948669 0.165153473615646362 -0.189750388264656067
-0.268393933773040771 -0.0335078947246074677 -0.168531313538551331
-0.0655310302972793579 0.183368533849716187 -0.199340343475341797
-0.153343170881271362 0.147381231188774109 -0.190133601427078247
-0.263861358165740967 0.0299406349658966064 -0.169843390583992004
-0.268726378679275513 -0.0516092889010906219 -0.169980093836784363
-0.0562643036246299744 0.201597005128860474 -0.199744284152984619
-0.0609438829123973846 0.192611217498779297 -0.200246989727020264
-0.176441922783851624 0.147595047950744629 -0.186892345547676086
-0.158117577433586121 0.147595047950744629 -0.190605521202087402
-0.130319863557815552 0.183870121836662292 -0.193683922290802002
-0.139618009328842163 0.174863085150718689 -0.192978933453559875
-0.194681644439697266 0.165850400924682617 -0.182652533054351807
-0.144318222999572754 0.165850400924682617 -0.19298197329044342
-0.18568122386932373 0.156832247972488403 -0.185500994324684143
-0.149016991257667542 0.156832247972488403 -0.192930459976196289
-0.172069951891899109 0.147808849811553955 -0.189195051789283752
-0.167485743761062622 0.147808849811553955 -0.190135285258293152
-0.162898272275924683 0.147808849811553955 -0.191053599119186401
0.0270372685045003891 0.12070939689874649 -0.21177227795124054
-0.0750097855925559998 0.19313126802444458 -0.201592743396759033
-0.065754525363445282 0.19313126802444458 -0.202523544430732727
-0.13508288562297821 0.184120908379554749 -0.194266781210899353
-0.153796404600143433 0.157055303454399109 -0.193423092365264893
-0.0611538700759410858 0.202404752373695374 -0.203395619988441467
-0.0704827755689620972 0.193391263484954834 -0.203422665596008301
-0.144563660025596619 0.175346195697784424 -0.194861233234405518
-0.149273470044136047 0.166315004229545593 -0.19484180212020874
-0.181536778807640076 0.157278358936309814 -0.189184010028839111
-0.158582210540771484 0.157278358936309814 -0.193891972303390503
-0.250147134065628052 0.139189526438713074 -0.173223420977592468
-0.245618224143981934 0.139189526438713074 -0.174536794424057007
-0.254957646131515503 0.121081434190273285 -0.173200309276580811
-0.260188579559326172 0.0666590034961700439 -0.175026625394821167
-0.0797795951366424561 0.202674001455307007 -0.202885076403617859
-0.140023425221443176 0.184622481465339661 -0.19617067277431488
-0.149344936013221741 0.175587743520736694 -0.195374339818954468
-0.190788283944129944 0.166547328233718872 -0.187708914279937744
-0.154059454798698425 0.166547328233718872 -0.195332348346710205
-0.177161306142807007 0.157501429319381714 -0.191509351134300232
-0.172568961977958679 0.157501429319381714 -0.192473903298377991
-0.167973265051841736 0.157501429319381714 -0.193416446447372437
-0.16337430477142334 0.157501429319381714 -0.194337084889411926
-0.265581727027893066 -0.00601196801289916039 -0.177465870976448059
-0.0752526894211769104 0.202943235635757446 -0.204736337065696716
-0.135472774505615234 0.193911314010620117 -0.197425246238708496
-0.144804522395133972 0.184873253107070923 -0.196705460548400879
-0.1954537034034729 0.175829306244850159 -0.187185242772102356
-0.154132679104804993 0.175829306244850159 -0.195863768458366394
-0.186427146196365356 0.166779637336730957 -0.190075606107711792
-0.168056875467300415 0.166779637336730957 -0.193979144096374512
-0.163455948233604431 0.166779637336730957 -0.194900184869766235
