ply
format ascii 1.0
element vertex 759
property float x
property float y
property float z
end_header
0.218067184090614319 0.243849053978919983 0.197330281138420105
0.194522261619567871 0.23981049656867981 0.198099657893180847
0.211337089538574219 0.23981049656867981 0.197445914149284363
0.167654156684875488 0.235771730542182922 0.199830874800682068
0.171009138226509094 0.235771730542182922 0.199562713503837585
0.174365177750587463 0.235771730542182922 0.199308261275291443
0.177722245454788208 0.235771730542182922 0.19906751811504364
0.181080266833305359 0.235771730542182922 0.198840543627738953
0.184439197182655334 0.235771730542182922 0.198627278208732605
0.214700490236282349 0.231732875108718872 0.197316750884056091
0.100865267217159271 0.227694019675254822 0.208068534731864929
0.0975704863667488098 0.215578421950340271 0.208770141005516052
0.0317685715854167938 0.211540535092353821 0.222791656851768494
0.0942690297961235046 0.211540535092353821 0.209426566958427429
0.0909741148352622986 0.207503139972686768 0.210115954279899597
0.0876860395073890686 0.203466325998306274 0.210838183760643005
0.114235356450080872 0.203466325998306274 0.206454858183860779
0.0844050869345664978 0.199430197477340698 0.211593255400657654
0.0811315551400184631 0.195394843816757202 0.212381109595298767
0.0778657421469688416 0.191360369324684143 0.213201627135276794
0.315212130546569824 0.316504240036010742 0.204365953803062439
0.311913758516311646 0.312480807304382324 0.203639790415763855
0.308641940355300903 0.304428219795227051 0.202581390738487244
0.305327922105789185 0.300399243831634521 0.201940879225730896
0.302008301019668579 0.296368628740310669 0.201333507895469666
0.298683315515518188 0.292336434125900269 0.200759336352348328
0.295353323221206665 0.288302779197692871 0.200218483805656433
0.292018592357635498 0.284267783164978027 0.199710831046104431
0.285322129726409912 0.280231505632400513 0.199023470282554626
0.281977027654647827 0.276194065809249878 0.198596224188804626
0.104048408567905426 0.247907400131225586 0.206665024161338806
0.20120963454246521 0.247907400131225586 0.196894809603691101
0.197840362787246704 0.243864104151725769 0.196970090270042419
0.15750296413898468 0.239820525050163269 0.199729964137077332
0.160858452320098877 0.239820525050163269 0.199420258402824402
0.164215162396430969 0.239820525050163269 0.199124261736869812
0.184378355741500854 0.239820525050163269 0.19763694703578949
0.187742173671722412 0.239820525050163269 0.197437211871147156
0.191106781363487244 0.239820525050163269 0.197251185774803162
0.10069718211889267 0.231732875108718872 0.207050427794456482
0.0973883196711540222 0.219601646065711975 0.207694217562675476
0.0282310210168361664 0.215558364987373352 0.22255377471446991
0.0940790995955467224 0.215558364987373352 0.20833192765712738
0.0907762572169303894 0.211515456438064575 0.209002658724784851
0.0711098387837409973 0.18727169930934906 0.213717147707939148
0.0514263026416301727 0.183234259486198425 0.218201801180839539
0.0612777136266231537 0.183234259486198425 0.216010734438896179
0.0645673945546150208 0.183234259486198425 0.215307280421257019
0.311845302581787109 0.328682005405426025 0.204365059733390808
0.315226197242736816 0.324660003185272217 0.204222902655601501
0.308629095554351807 0.316609412431716919 0.202723726630210876
0.305385500192642212 0.304518401622772217 0.201272293925285339
0.302064776420593262 0.300484418869018555 0.200644597411155701
0.298738569021224976 0.296448796987533569 0.200050041079521179
0.295407146215438843 0.292411595582962036 0.199488803744316101
0.248356714844703674 0.288372963666915894 0.197082147002220154
0.292070835828781128 0.288372963666915894 0.198960885405540466
0.28872990608215332 0.284332931041717529 0.19846634566783905
0.275316864252090454 0.27220568060874939 0.197010919451713562
0.197797521948814392 0.247927457094192505 0.19601874053478241
0.103875048458576202 0.243879154324531555 0.20558755099773407
0.194424405694007874 0.243879154324531555 0.196107909083366394
0.100537173449993134 0.239830553531646729 0.206081315875053406
0.167489558458328247 0.239830553531646729 0.197823509573936462
0.170852750539779663 0.239830553531646729 0.197554692625999451
0.174217015504837036 0.239830553531646729 0.197299584746360779
0.177582293748855591 0.239830553531646729 0.197058245539665222
0.180948540568351746 0.239830553531646729 0.196830734610557556
0.0972044691443443298 0.227683991193771362 0.20660834014415741
0.0938925221562385559 0.219586595892906189 0.207256659865379333
0.0905818268656730652 0.215538293123245239 0.207908734679222107
0.027997087687253952 0.21149037778377533 0.221651241183280945
0.0872972384095191956 0.207442954182624817 0.208701357245445251
0.0840039774775505066 0.203396111726760864 0.209438905119895935
0.0807180032134056091 0.199349954724311829 0.210209295153617859
0.0774395987391471863 0.195304572582244873 0.211012527346611023
0.0741690471768379211 0.191260069608688354 0.211848482489585876
0.0676063373684883118 0.18721655011177063 0.213394686579704285
0.0544835887849330902 0.183174088597297668 0.216462597250938416
0.057771485298871994 0.183174088597297668 0.215731367468833923
0.311798006296157837 0.340868622064590454 0.204866334795951843
0.315280020236968994 0.328802138566970825 0.203676685690879822
0.308641940355300903 0.324775159358978271 0.202581629157066345
0.305408060550689697 0.3126811683177948 0.201010391116142273
0.302119582891464233 0.304608583450317383 0.19997619092464447
0.298792213201522827 0.300569623708724976 0.199361309409141541
0.295459449291229248 0.296528995037078857 0.198779687285423279
0.292121648788452148 0.292486786842346191 0.19823138415813446
0.28877905011177063 0.288443148136138916 0.197716519236564636
0.248377799987792969 0.284398108720779419 0.195794329047203064
0.285431981086730957 0.284398108720779419 0.197235032916069031
0.282080769538879395 0.280351817607879639 0.196786984801292419
0.278725653886795044 0.276304364204406738 0.196372434496879578
0.201129719614982605 0.25200045108795166 0.194942459464073181
0.160679236054420471 0.243894204497337341 0.197434231638908386
0.164044082164764404 0.243894204497337341 0.197137519717216492
0.187628030776977539 0.243894204497337341 0.195446357131004333
0.191000789403915405 0.243894204497337341 0.195259913802146912
0.0970322117209434509 0.231732875108718872 0.205590888857841492
0.093709312379360199 0.223625168204307556 0.206200823187828064
0.0903908386826515198 0.219571545720100403 0.206834182143211365
0.117079652845859528 0.215518221259117126 0.202610418200492859
0.0870947763323783875 0.211465299129486084 0.207588657736778259
0.08379334956407547 0.207412853837013245 0.208307608962059021
0.0804990604519844055 0.203361004590988159 0.209059581160545349
0.0706619098782539368 0.191209927201271057 0.211512371897697449
0.311841845512390137 0.345025688409805298 0.204401597380638123
0.308601886034011841 0.336979031562805176 0.203025266528129578
0.305423647165298462 0.320856094360351562 0.200829312205314636
0.302140980958938599 0.312781333923339844 0.199715122580528259
0.298844248056411743 0.304698765277862549 0.198693141341209412
0.295510232448577881 0.300654798746109009 0.198091134428977966
0.322365373373031616 0.300654798746109009 0.200514480471611023
0.29217103123664856 0.296609163284301758 0.197522446513175964
0.288826853036880493 0.292561978101730347 0.196987137198448181
0.285478055477142334 0.288513302803039551 0.196485325694084167
0.282124906778335571 0.284463286399841309 0.196016952395439148
0.248398557305335999 0.280411988496780396 0.19452570378780365
0.278767704963684082 0.280411988496780396 0.195582076907157898
0.272042423486709595 0.272305965423583984 0.194813057780265808
0.194327548146247864 0.247967585921287537 0.194136306643486023
0.157219633460044861 0.243909254670143127 0.196727320551872253
0.167326599359512329 0.243909254670143127 0.195836171507835388
0.170697927474975586 0.243909254670143127 0.195566639304161072
0.1740703284740448 0.243909254670143127 0.195310935378074646
0.177443742752075195 0.243909254670143127 0.195069059729576111
0.180818125605583191 0.243909254670143127 0.194840952754020691
0.184193402528762817 0.243909254670143127 0.194626674056053162
0.0968632772564888 0.235791802406311035 0.204593047499656677
0.0935295000672340393 0.227673947811126709 0.205164536833763123
0.090203307569026947 0.223615124821662903 0.205779001116752625
0.0868958309292793274 0.215498164296150208 0.206495329737663269
0.0835863128304481506 0.211440220475196838 0.207195624709129333
0.077017076313495636 0.199269711971282959 0.208842024207115173
0.0737338587641716003 0.195214301347732544 0.209660634398460388
0.0638860836625099182 0.187106236815452576 0.212088987231254578
0.311883717775344849 0.349189966917037964 0.20395796000957489
0.308645635843276978 0.341138750314712524 0.202540740370750427
0.305432260036468506 0.329042375087738037 0.200729355216026306
0.302155762910842896 0.320966243743896484 0.199535056948661804
0.298864513635635376 0.312881499528884888 0.198432907462120056
0.319043755531311035 0.308836162090301514 0.199863895773887634
0.295559525489807129 0.304788947105407715 0.197423204779624939
0.32243645191192627 0.304788947105407715 0.199848517775535583
0.292218953371047974 0.300739973783493042 0.196834072470664978
0.28887331485748291 0.296689361333847046 0.196278378367424011
0.28552284836769104 0.292637139558792114 0.195756122469902039
0.282167881727218628 0.288583487272262573 0.195267364382743835
0.248419001698493958 0.276414662599563599 0.193276390433311462
0.275456875562667847 0.276414662599563599 0.194161519408226013
0.197663679718971252 0.252050608396530151 0.193046197295188904
0.187515050172805786 0.247987657785415649 0.193475708365440369
0.190895870327949524 0.247987657785415649 0.193288788199424744
0.0967060104012489319 0.243924304842948914 0.203664109110832214
0.10004589706659317 0.243924304842948914 0.20310567319393158
0.0933547839522361755 0.235796824097633362 0.204157575964927673
0.0900192484259605408 0.227668941020965576 0.204743430018424988
0.0866914913058280945 0.223605096340179443 0.205372259020805359
0.0239118300378322601 0.219541445374488831 0.21938614547252655
0.0833828821778297424 0.215478092432022095 0.206103011965751648
0.0800926908850669861 0.207352668046951294 0.206925496459007263
0.0767933651804924011 0.203290775418281555 0.207692787051200867
0.0735016092658042908 0.199229583144187927 0.208493039011955261
0.070217721164226532 0.195169165730476379 0.209326133131980896
0.0669419988989830017 0.191109627485275269 0.210192009806632996
0.0603678040206432343 0.187051072716712952 0.211797818541526794
0.305433869361877441 0.337239205837249756 0.200710698962211609
0.302202135324478149 0.32512056827545166 0.198969408869743347
0.298911720514297485 0.317030042409896851 0.197826489806175232
0.295607268810272217 0.308931320905685425 0.196775957942008972
0.292265474796295166 0.304879128932952881 0.196166381239891052
0.288918405771255493 0.300825148820877075 0.195590242743492126
0.278862923383712769 0.284593641757965088 0.193793699145317078
0.275495678186416626 0.280532330274581909 0.193371579051017761
0.2010088711977005 0.256143182516098022 0.19198976457118988
0.204395651817321777 0.256143182516098022 0.191858097910881042
0.194231688976287842 0.252075701951980591 0.192184969782829285
0.157034203410148621 0.248007729649543762 0.194762274622917175
0.160410001873970032 0.248007729649543762 0.194450661540031433
0.163787052035331726 0.248007729649543762 0.194152876734733582
0.167165294289588928 0.248007729649543762 0.193868920207023621
0.170544669032096863 0.248007729649543762 0.19359879195690155
0.173925116658210754 0.248007729649543762 0.193342491984367371
0.177306592464447021 0.248007729649543762 0.193100020289421082
0.180689036846160889 0.248007729649543762 0.192871376872062683
0.184072375297546387 0.248007729649543762 0.192656561732292175
0.0931937173008918762 0.2439393550157547 0.203229412436485291
0.089838661253452301 0.231732875108718872 0.203727409243583679
0.0865031853318214417 0.22766391932964325 0.204337403178215027
0.0831830576062202454 0.219526395201683044 0.205029770731925964
0.11998903751373291 0.219526395201683044 0.199030384421348572
0.0798810645937919617 0.211390063166618347 0.20581410825252533
0.0765734091401100159 0.207322567701339722 0.206562861800193787
0.0634199604392051697 0.191059485077857971 0.209887191653251648
0.0535391829907894135 0.186995923519134521 0.212256953120231628
0.0568442903459072113 0.186995923519134521 0.211521908640861511
0.308778434991836548 0.345445752143859863 0.201068982481956482
0.305475503206253052 0.341408848762512207 0.200227305293083191
0.302206873893737793 0.333327174186706543 0.19891183078289032
0.298922479152679443 0.325235694646835327 0.197688564658164978
0.295623362064361572 0.317135214805603027 0.196557685732841492
0.292310535907745361 0.309026509523391724 0.195519432425498962
0.28896215558052063 0.304969310760498047 0.194922789931297302
0.285628855228424072 0.296849727630615234 0.194030627608299255
0.282268017530441284 0.292787522077560425 0.193520829081535339
0.332850664854049683 0.292787522077560425 0.19798104465007782
0.278902769088745117 0.288723856210708618 0.193044647574424744
0.275533467531204224 0.28465878963470459 0.192602083086967468
0.272170722484588623 0.276524990797042847 0.191963598132133484
0.268792390823364258 0.27245640754699707 0.19160829484462738
0.197576716542243958 0.256173282861709595 0.191114768385887146
0.170472323894500732 0.252100765705108643 0.192669793963432312
0.173856571316719055 0.252100765705108643 0.192413195967674255
0.177241846919059753 0.252100765705108643 0.192170485854148865
0.180628091096878052 0.252100765705108643 0.191941544413566589
0.184015229344367981 0.252100765705108643 0.19172649085521698
0.187403231859207153 0.252100765705108643 0.191525325179100037
0.1907920241355896 0.252100765705108643 0.191337987780570984
0.093030981719493866 0.248027786612510681 0.202291533350944519
0.0896668210625648499 0.239880725741386414 0.202760562300682068
0.0863184407353401184 0.231732875108718872 0.203322097659111023
0.0829868689179420471 0.223585024476051331 0.203976020216941833
0.119840443134307861 0.223585024476051331 0.19796888530254364
0.0796731188893318176 0.215437963604927063 0.204722091555595398
0.0763571932911872864 0.211364969611167908 0.205452188849449158
0.0730739161372184753 0.203220561146736145 0.20634286105632782
0.0697773322463035583 0.199149340391159058 0.207158550620079041
0.0664887949824333191 0.19507889449596405 0.208007141947746277
0.0598926208913326263 0.191009342670440674 0.209597691893577576
0.0467063896358013153 0.186940774321556091 0.212773844599723816
0.0500094406306743622 0.186940774321556091 0.212010785937309265
0.302204906940460205 0.341543883085250854 0.198935791850090027
0.298926860094070435 0.3334522545337677 0.197632119059562683
0.295633465051651001 0.325350821018218994 0.196420773863792419
0.292325675487518311 0.317240387201309204 0.195302054286003113
0.289004534482955933 0.309121668338775635 0.194276079535484314
0.285671085119247437 0.300995528697967529 0.1933431476354599
0.282308608293533325 0.296929895877838135 0.19281284511089325
0.326201647520065308 0.296929895877838135 0.196502313017845154
0.278941541910171509 0.292862683534622192 0.192316219210624695
0.275570273399353027 0.288794010877609253 0.19185321033000946
0.272206276655197144 0.280652642250061035 0.191174015402793884
0.268825531005859375 0.276580154895782471 0.190798386931419373
0.248472526669502258 0.272506564855575562 0.19000522792339325
0.177178516983985901 0.256203383207321167 0.19126109778881073
0.180568471550941467 0.256203383207321167 0.191031977534294128
0.183959335088729858 0.256203383207321167 0.190816685557365417
0.187351062893867493 0.256203383207321167 0.190615281462669373
0.190743580460548401 0.256203383207321167 0.190427705645561218
0.194136828184127808 0.256203383207321167 0.190254077315330505
0.0928717032074928284 0.252125859260559082 0.201373562216758728
0.160234451293945312 0.252125859260559082 0.192505106329917908
0.163619458675384521 0.252125859260559082 0.192206606268882751
0.167005658149719238 0.252125859260559082 0.191921994090080261
0.0895090177655220032 0.248047858476638794 0.201872691512107849
0.0962059572339057922 0.248047858476638794 0.200710639357566833
0.153459399938583374 0.248047858476638794 0.193053945899009705
0.0861372873187065125 0.235811859369277954 0.202326461672782898
0.0827943161129951477 0.22765389084815979 0.202941820025444031
0.0794688835740089417 0.219496294856071472 0.203649505972862244
0.0761447623372077942 0.215417906641960144 0.204360887408256531
0.0728492662310600281 0.207262381911277771 0.205213472247123718
0.302242755889892578 0.345725804567337036 0.1984739750623703
0.305602163076400757 0.345725804567337036 0.198756381869316101
0.298966020345687866 0.337629437446594238 0.197129234671592712
0.295673578977584839 0.329522848129272461 0.19587688148021698
0.29236641526222229 0.321406841278076172 0.194717153906822205
0.289045572280883789 0.313282191753387451 0.193650230765342712
0.322829395532608032 0.309216856956481934 0.196167871356010437
0.285712063312530518 0.305149674415588379 0.19267641007900238
0.282348006963729858 0.301080703735351562 0.192125603556632996
0.278979241847991943 0.297010093927383423 0.191608473658561707
0.329685360193252563 0.297010093927383423 0.195870563387870789
0.272240906953811646 0.284789144992828369 0.19040505588054657
0.265479177236557007 0.272556692361831665 0.189436480402946472
0.17711658775806427 0.260315418243408203 0.190372034907341003
0.180510178208351135 0.260315418243408203 0.190142616629600525
0.183904692530632019 0.260315418243408203 0.189927086234092712
0.187300041317939758 0.260315418243408203 0.189725503325462341
0.190696194767951965 0.260315418243408203 0.189537748694419861
0.194093093276023865 0.260315418243408203 0.189363881945610046
0.197490677237510681 0.260315418243408203 0.189203962683677673
0.20428764820098877 0.260315418243408203 0.188925787806510925
0.163541257381439209 0.256233483552932739 0.191298589110374451
0.166931182146072388 0.256233483552932739 0.191013619303703308
0.170322239398956299 0.256233483552932739 0.190742596983909607
0.173714369535446167 0.256233483552932739 0.190485402941703796
0.15675470232963562 0.252150952816009521 0.191800281405448914
0.0859597250819206238 0.239900797605514526 0.201350614428520203
0.0826054289937019348 0.231732875108718872 0.201927289366722107
0.122924335300922394 0.227648869156837463 0.195450052618980408
0.0792683586478233337 0.223564967513084412 0.202596470713615417
0.0759361311793327332 0.21948125958442688 0.203289076685905457
0.0726284608244895935 0.211314812302589417 0.204103454947471619
0.0693407729268074036 0.203150346875190735 0.205009743571281433
0.066039450466632843 0.199069097638130188 0.205840930342674255
0.0627463087439537048 0.194988623261451721 0.206705138087272644
0.0561404787003993988 0.190909057855606079 0.208326622843742371
0.302278906106948853 0.349914908409118652 0.198033317923545837
0.295674592256546021 0.337759494781494141 0.195863112807273865
0.292373001575469971 0.329642951488494873 0.19462268054485321
0.289057046175003052 0.321516990661621094 0.193475112318992615
0.285727769136428833 0.313382357358932495 0.192420527338981628
0.282386213541030884 0.305239856243133545 0.191459104418754578
0.279015809297561646 0.301165878772735596 0.190921410918235779
0.32638975977897644 0.301165878772735596 0.194805845618247986
0.275656044483184814 0.293013066053390503 0.190106973052024841
0.272274583578109741 0.288934379816055298 0.189656719565391541
0.26889955997467041 0.280772984027862549 0.188989624381065369
0.26550900936126709 0.276690453290939331 0.188626930117607117
0.255311340093612671 0.272606849670410156 0.188103243708610535
0.262115389108657837 0.272606849670410156 0.188298091292381287
0.177056074142456055 0.264436781406402588 0.189503297209739685
0.18045322597026825 0.264436781406402588 0.189273640513420105
0.183851286768913269 0.264436781406402588 0.189057871699333191
0.187250196933746338 0.264436781406402588 0.188856050372123718
0.190649911761283875 0.264436781406402588 0.188668116927146912
0.194050371646881104 0.264436781406402588 0.188494071364402771
0.163464799523353577 0.260350525379180908 0.190410777926445007
0.166858360171318054 0.260350525379180908 0.190125510096549988
0.170253053307533264 0.260350525379180908 0.18985418975353241
0.173648819327354431 0.260350525379180908 0.189596697688102722
0.20084710419178009 0.260350525379180908 0.188037380576133728
0.0925412401556968689 0.256263554096221924 0.199469074606895447
0.156669095158576965 0.256263554096221924 0.190893039107322693
0.160060718655586243 0.256263554096221924 0.190579995512962341
0.153267949819564819 0.252176016569137573 0.191110119223594666
0.0857857540249824524 0.243999555706977844 0.200394555926322937
0.122790850698947906 0.239910826086997986 0.194467231631278992
0.0192960016429424286 0.235821902751922607 0.215243145823478699
0.0824201926589012146 0.235821902751922607 0.200932428240776062
0.0790715590119361877 0.227643847465515137 0.201562985777854919
0.0724115297198295593 0.215377777814865112 0.203012809157371521
0.0691114440560340881 0.20720219612121582 0.203881010413169861
0.0658014789223670959 0.20311523973941803 0.204693660140037537
0.059205915778875351 0.194943487644195557 0.206418141722679138
0.0525986663997173309 0.190858900547027588 0.20806865394115448
0.29903942346572876 0.346005856990814209 0.196186825633049011
0.295710086822509766 0.341949045658111572 0.195381805300712585
0.292409390211105347 0.333827555179595947 0.194100245833396912
0.289093971252441406 0.325696229934692383 0.192911550402641296
0.285764932632446289 0.317555874586105347 0.191815897822380066
0.323003888130187988 0.313482522964477539 0.1945333331823349
0.282423228025436401 0.309407204389572144 0.190813466906547546
0.279051244258880615 0.305330038070678711 0.190255209803581238
0.275690793991088867 0.297170460224151611 0.189399823546409607
0.272307366132736206 0.293088227510452271 0.188929006457328796
0.268931031227111816 0.284919500350952148 0.188221141695976257
0.265538066625595093 0.280833125114440918 0.187838003039360046
0.258742779493331909 0.272657006978988647 0.187173411250114441
0.183799132704734802 0.268567383289337158 0.188209101557731628
0.187201529741287231 0.268567383289337158 0.188007041811943054
0.190604716539382935 0.268567383289337158 0.187818929553031921
0.194008633494377136 0.268567383289337158 0.187644705176353455
0.197405561804771423 0.264476895332336426 0.187313839793205261
0.156585395336151123 0.260385632514953613 0.190006062388420105
0.153178632259368896 0.256293654441833496 0.190203353762626648
0.0822386518120765686 0.239920854568481445 0.199957355856895447
0.0788785144686698914 0.231732875108718872 0.200549229979515076
0.0755360201001167297 0.223544895648956299 0.201233729720115662
0.0721984729170799255 0.219451159238815308 0.201941713690757751
0.0223671309649944305 0.215357705950737 0.213525459170341492
0.0688860490918159485 0.211264654994010925 0.202771589159965515
0.0622880272567272186 0.198988854885101318 0.204540416598320007
0.0490517430007457733 0.190808758139610291 0.207826122641563416
0.295744031667709351 0.346145868301391602 0.194921717047691345
0.292444288730621338 0.338019669055938721 0.193598970770835876
0.289129555225372314 0.329883217811584473 0.192369028925895691
0.285800784826278687 0.321737289428710938 0.191232249140739441
0.282459050416946411 0.313582688570022583 0.190188691020011902
0.279085606336593628 0.309502393007278442 0.189609870314598083
0.326575517654418945 0.305420219898223877 0.193131014704704285
0.275724500417709351 0.30133625864982605 0.188713476061820984
0.272339195013046265 0.297250628471374512 0.188222095370292664
0.268961638212203979 0.289074718952178955 0.187473282217979431
0.265566349029541016 0.28498464822769165 0.187069639563560486
0.255356252193450928 0.276800751686096191 0.186273500323295593
0.258765965700149536 0.276800751686096191 0.186364158987998962
0.262175261974334717 0.276800751686096191 0.186468765139579773
0.200769737362861633 0.264517039060592651 0.186147138476371765
0.0888096615672111511 0.252226173877716064 0.197937771677970886
0.0854325070977210999 0.248128116130828857 0.198453173041343689
0.0786892250180244446 0.235831931233406067 0.199555143713951111
0.075334988534450531 0.227633818984031677 0.200200960040092468
0.071989305317401886 0.223534867167472839 0.200890108942985535
0.0686646178364753723 0.215337648987770081 0.201681658625602722
0.0221297852694988251 0.21123957633972168 0.212625011801719666
0.0653600171208381653 0.207141995429992676 0.202565476298332214
0.0620452873408794403 0.203045010566711426 0.203393742442131042
0.0554406754672527313 0.194853231310844421 0.205149456858634949
0.0322351418435573578 0.190758615732192993 0.210806593298912048
0.045499797910451889 0.190758615732192993 0.207599088549613953
0.29247775673866272 0.342219144105911255 0.19311879575252533
0.289163708686828613 0.334077775478363037 0.191847667098045349
0.285835355520248413 0.325926512479782104 0.190669640898704529
0.282493650913238525 0.317766189575195312 0.18958495557308197
0.279118835926055908 0.313682854175567627 0.188985452055931091
0.275757193565368652 0.305510401725769043 0.188047990202903748
0.272370070219039917 0.301421433687210083 0.187536045908927917
0.268991380929946899 0.293238610029220581 0.186746224761009216
0.265593886375427246 0.289144903421401978 0.186322018504142761
0.25537562370300293 0.280953466892242432 0.185484752058982849
0.258788555860519409 0.280953466892242432 0.185575529932975769
0.262201100587844849 0.280953466892242432 0.18568025529384613
0.251967072486877441 0.276855915784835815 0.185176476836204529
0.0886502638459205627 0.256353855133056641 0.197040960192680359
0.081873767077922821 0.244044706225395203 0.197997555136680603
0.0785037055611610413 0.239940926432609558 0.198580905795097351
0.0751377865672111511 0.231732875108718872 0.199187979102134705
0.0684471353888511658 0.219421058893203735 0.200611278414726257
0.0651300325989723206 0.211214497685432434 0.201456770300865173
0.0585231594741344452 0.198908597230911255 0.203256949782371521
0.0286280028522014618 0.194808095693588257 0.210467860102653503
0.0518858097493648529 0.194808095693588257 0.204894170165061951
0.0353023819625377655 0.190708473324775696 0.208993241190910339
0.0419428907334804535 0.190708473324775696 0.207387492060661316
0.295850813388824463 0.350494891405105591 0.193473979830741882
0.292509704828262329 0.346425920724868774 0.192659899592399597
0.289161652326583862 0.34235420823097229 0.191879317164421082
0.282527059316635132 0.321957588195800781 0.189002200961112976
0.279150962829589844 0.317871361970901489 0.188382074236869812
0.275788873434066772 0.309692740440368652 0.187403425574302673
0.272400021553039551 0.305600583553314209 0.186870858073234558
0.269020289182662964 0.2974109947681427 0.186039969325065613
0.265620678663253784 0.293313771486282349 0.185595199465751648
0.262217313051223755 0.289215087890625 0.185184404253959656
0.255394488573074341 0.28511500358581543 0.184716805815696716
0.258810549974441528 0.28511500358581543 0.184807643294334412
0.251983225345611572 0.281013637781143188 0.184387966990470886
0.0816996470093727112 0.248168244957923889 0.197062358260154724
0.0749444440007209778 0.235841959714889526 0.198194727301597595
0.0715846642851829529 0.227623790502548218 0.198855862021446228
0.0649040862917900085 0.215297505259513855 0.200367555022239685
0.0615950636565685272 0.207081809639930725 0.201267048716545105
0.0582756362855434418 0.202974796295166016 0.202110931277275085
0.054964553564786911 0.198868483304977417 0.202987954020500183
0.0483258627355098724 0.194762960076332092 0.204654380679130554
0.0383810810744762421 0.190658316016197205 0.207191392779350281
0.292540192604064941 0.350639879703521729 0.192222341895103455
0.285900592803955078 0.334327965974807739 0.18960784375667572
0.282532155513763428 0.330243557691574097 0.188913330435752869
0.279181957244873047 0.322067737579345703 0.187799736857414246
0.275819510221481323 0.313883215188980103 0.186779841780662537
0.272429049015045166 0.309787929058074951 0.186226591467857361
0.326871007680892944 0.309787929058074951 0.190466448664665222
0.269048333168029785 0.301591813564300537 0.185354575514793396
0.265646666288375854 0.297491192817687988 0.184889182448387146
0.262241095304489136 0.293388962745666504 0.184457823634147644
0.255412817001342773 0.289285272359848022 0.183969542384147644
0.258831948041915894 0.289285272359848022 0.18406049907207489
0.251998931169509888 0.285180181264877319 0.18362019956111908
0.0849000290036201477 0.252301424741744995 0.195526763796806335
0.0781308338046073914 0.244074791669845581 0.196622714400291443
0.0713833197951316833 0.231732875108718872 0.197843655943870544
0.0680301859974861145 0.223504766821861267 0.198558971285820007
0.0613604895770549774 0.211164325475692749 0.200158998370170593
0.0213769339025020599 0.207051709294319153 0.209768578410148621
0.0514008216559886932 0.198828354477882385 0.202734395861625671
0.0447608940303325653 0.194717824459075928 0.204430088400840759
0.28925788402557373 0.346705973148345947 0.190410837531089783
0.285898476839065552 0.342624306678771973 0.189642056822776794
0.282561957836151123 0.334453076124191284 0.188393518328666687
0.279211819171905518 0.326271921396255493 0.187238559126853943
0.275849103927612305 0.318081676959991455 0.186177358031272888
0.272457093000411987 0.313983380794525146 0.185603365302085876
0.269075542688369751 0.305780947208404541 0.184690102934837341
0.265671908855438232 0.30167698860168457 0.184204086661338806
0.262264221906661987 0.297571361064910889 0.183752104640007019
0.255430638790130615 0.293464154005050659 0.183243140578269958
0.258852750062942505 0.293464154005050659 0.18333415687084198
0.084737040102481842 0.25644412636756897 0.19463096559047699
0.0745596811175346375 0.23997102677822113 0.196218237280845642
0.0711859092116355896 0.23585200309753418 0.196851238608360291
0.0678206756711006165 0.227613762021064758 0.197527751326560974
0.0644746646285057068 0.219375908374786377 0.198297306895256042
0.0611300431191921234 0.215257376432418823 0.19907049834728241
0.0578166507184505463 0.207021623849868774 0.199985787272453308
0.0544926188886165619 0.202904582023620605 0.200845345854759216
0.0278291814029216766 0.198788240551948547 0.20733325183391571
0.0311963967978954315 0.194672688841819763 0.206659719347953796
0.289286494255065918 0.350929856300354004 0.189974471926689148
0.285926550626754761 0.34684598445892334 0.189184948801994324
0.282590538263320923 0.338670045137405396 0.187894925475120544
0.279240578413009644 0.330483794212341309 0.186698541045188904
0.275877654552459717 0.322288036346435547 0.185595914721488953
0.27248421311378479 0.318186849355697632 0.18500123918056488
0.327051848173141479 0.31408354640007019 0.188835546374320984
0.269101887941360474 0.309978276491165161 0.184046670794487
0.255447983741760254 0.297651559114456177 0.182537660002708435
0.258872956037521362 0.297651559114456177 0.182628735899925232
0.0743740871548652649 0.244104892015457153 0.195264801383018494
0.0676151886582374573 0.231732875108718872 0.196516379714012146
0.0642568245530128479 0.223484694957733154 0.197247132658958435
0.0575775019824504852 0.211114168167114258 0.198878452181816101
0.0542446039617061615 0.206991523504257202 0.199719354510307312
0.0242128781974315643 0.2028694748878479 0.20705161988735199
0.0509200654923915863 0.2028694748878479 0.200593575835227966
0.0476041696965694427 0.198748111724853516 0.201500937342643738
0.0342805646359920502 0.194627553224563599 0.204841896891593933
0.0409550629556179047 0.194627553224563599 0.203227922320365906
0.282617926597595215 0.342894405126571655 0.187417671084403992
0.279268175363540649 0.334703266620635986 0.186179742217063904
0.275905191898345947 0.326502203941345215 0.185035690665245056
0.327118247747421265 0.318291991949081421 0.188236996531486511
0.269127339124679565 0.314183712005615234 0.183424279093742371
0.265733838081359863 0.305961310863494873 0.182522699236869812
0.255464762449264526 0.301847368478775024 0.181853100657463074
0.258892565965652466 0.301847368478775024 0.181944236159324646
0.262319952249526978 0.301847368478775024 0.18204943835735321
0.0775706544518470764 0.248248502612113953 0.193680927157402039
0.0707930997014045715 0.239991083741188049 0.194876417517662048
0.064043097198009491 0.227603718638420105 0.196216747164726257
0.0606921128928661346 0.219345808029174805 0.197001859545707703
0.0573425553739070892 0.215217247605323792 0.197790667414665222
0.0306583903729915619 0.198707997798919678 0.204511925578117371
0.0440262667834758759 0.198707997798919678 0.201279386878013611
0.0373762063682079315 0.194582417607307434 0.203035697340965271
0.286015361547470093 0.351219832897186279 0.187739476561546326
0.282644063234329224 0.347126036882400513 0.186961755156517029
0.279294669628143311 0.338930219411849976 0.185682281851768494
0.275931656360626221 0.330724060535430908 0.184496745467185974
0.272556066513061523 0.322508335113525391 0.183405265212059021
0.265757501125335693 0.310168623924255371 0.18188004195690155
0.258911579847335815 0.306051492691040039 0.181280836462974548
0.262341678142547607 0.306051492691040039 0.181386098265647888
0.337670505046844482 0.297811925411224365 0.186562046408653259
0.0807812288403511047 0.252401739358901978 0.192129597067832947
0.0739971622824668884 0.248268574476242065 0.193328484892845154
0.0706036314368247986 0.244134992361068726 0.193923875689506531
0.0672102496027946472 0.235867053270339966 0.194523259997367859
0.0604699663817882538 0.223464637994766235 0.195952519774436951
0.0571118555963039398 0.219330757856369019 0.196722492575645447
0.053781118243932724 0.211064010858535767 0.197615131735801697
0.0236672423779964447 0.206931337714195251 0.204946562647819519
0.0504436157643795013 0.206931337714195251 0.198471769690513611
0.047114592045545578 0.202799245715141296 0.199361726641654968
0.0337513051927089691 0.198667868971824646 0.202691659331321716
0.0370957069098949432 0.198667868971824646 0.201875731348991394
0.0404434166848659515 0.198667868971824646 0.201073452830314636
0.279320001602172852 0.343164503574371338 0.185206219553947449
0.275957077741622925 0.334953457117080688 0.183979079127311707
0.272581249475479126 0.326732486486434937 0.182846054434776306
0.269193530082702637 0.318502336740493774 0.181807383894920349
0.334299862384796143 0.306141674518585205 0.185822054743766785
0.337869763374328613 0.289636135101318359 0.184946462512016296
0.0670128539204597473 0.240011155605316162 0.193551644682884216
0.0636258944869041443 0.231732875108718872 0.194205507636070251
0.0602520070970058441 0.227593690156936646 0.194922909140586853
0.0535416863858699799 0.21517711877822876 0.196528121829032898
0.050195302814245224 0.211038932204246521 0.197366043925285339
0.0468572787940502167 0.206901237368583679 0.198237344622612
0.0267828516662120819 0.202764138579368591 0.203227385878562927
0.0301251225173473358 0.202764138579368591 0.202382966876029968
0.0401722602546215057 0.202764138579368591 0.199931666254997253
0.043527897447347641 0.202764138579368591 0.199142023921012878
0.384966194629669189 0.140847265720367432 0.195083960890769958
0.282726854085922241 0.351509809494018555 0.185517355799674988
0.275981485843658447 0.339190363883972168 0.183482751250267029
0.272605478763580322 0.33096429705619812 0.182308122515678406
0.269217252731323242 0.322728633880615234 0.181227847933769226
0.265817821025848389 0.314484238624572754 0.180242165923118591
0.3309154212474823 0.314484238624572754 0.185177966952323914
0.258959084749221802 0.310358971357345581 0.179621383547782898
0.262395977973937988 0.310358971357345581 0.179726824164390564
0.334462434053421021 0.302102923393249512 0.184458181262016296
0.338087886571884155 0.277297168970108032 0.183177933096885681
0.0736241713166236877 0.252451896667480469 0.191412433981895447
0.0702188089489936829 0.248308703303337097 0.191989228129386902
0.0634203925728797913 0.235877081751823425 0.193214818835258484
0.0566696636378765106 0.223444566130638123 0.194675132632255554
0.0533065758645534515 0.219300657510757446 0.195460721850395203
0.0499514006078243256 0.215157061815261841 0.196279868483543396
0.0466044209897518158 0.211013853549957275 0.197132512927055359
0.0298448316752910614 0.206871137022972107 0.201263949275016785
0.0399057231843471527 0.206871137022972107 0.198809310793876648
0.043265949934720993 0.206871137022972107 0.198018595576286316
0.0332266949117183685 0.202729031443595886 0.200560376048088074
0.0365798287093639374 0.202729031443595886 0.199742302298545837
0.279398024082183838 0.347546100616455078 0.183740720152854919
0.276004791259765625 0.343434631824493408 0.183007881045341492
0.272628724575042725 0.335203677415847778 0.181791588664054871
0.269240081310272217 0.326962739229202271 0.180669650435447693
0.265839934349060059 0.31871265172958374 0.179642364382743835
0.262416303157806396 0.314584404230117798 0.179106220602989197
0.334622681140899658 0.298052459955215454 0.183113560080528259
0.338283836841583252 0.264918237924575806 0.181589230895042419
0.0768232569098472595 0.252476990222930908 0.189756020903587341
0.0666160508990287781 0.244180142879486084 0.191598638892173767
0.0632190331816673279 0.240031227469444275 0.192244037985801697
0.0598265789449214935 0.231732875108718872 0.192913398146629333
0.341794431209564209 0.231732875108718872 0.181372687220573425
0.0564474724233150482 0.227583661675453186 0.193646356463432312
0.0530758164823055267 0.223434537649154663 0.194413051009178162
0.049711909145116806 0.21928560733795166 0.195213422179222107
0.0463560633361339569 0.215136989951133728 0.196047291159629822
0.0329241715371608734 0.21098877489566803 0.199331328272819519
0.0396438054740428925 0.21098877489566803 0.197706446051597595
0.0430085472762584686 0.21098877489566803 0.196914657950401306
0.0363086573779582977 0.206841051578521729 0.198620900511741638
0.265861243009567261 0.322948932647705078 0.179063841700553894
0.2624359130859375 0.318817794322967529 0.178506776690483093
0.259005993604660034 0.314684569835662842 0.177983984351158142
0.331193268299102783 0.310549348592758179 0.18276272714138031
0.33481559157371521 0.289846688508987427 0.181494995951652527
0.0698380246758460999 0.25250205397605896 0.190074965357780457
0.33845752477645874 0.25250205397605896 0.180181130766868591
0.0596170239150524139 0.235887110233306885 0.191923543810844421
0.0326580516993999481 0.215116932988166809 0.198250159621238708
0.0360206328332424164 0.215116932988166809 0.197429820895195007
0.0393865369260311127 0.215116932988166809 0.196623191237449646
0.0427557192742824554 0.215116932988166809 0.1958303302526474
0.341903060674667358 0.215116932988166809 0.180520758032798767
0.0293211601674556732 0.210963696241378784 0.199173316359519958
0.276076734066009521 0.347826153039932251 0.181543394923210144
0.272696614265441895 0.33958059549331665 0.180283769965171814
0.269303560256958008 0.331324636936187744 0.179118737578392029
0.262454837560653687 0.32305908203125 0.177928730845451355
0.259023159742355347 0.318922966718673706 0.177385017275810242
0.331352680921554565 0.306502401828765869 0.18137715756893158
0.334999054670333862 0.281615287065505981 0.17995588481426239
0.0730599686503410339 0.25668489933013916 0.188514098525047302
0.0662233754992485046 0.248368889093399048 0.189665839076042175
0.062814272940158844 0.244210243225097656 0.190292760729789734
0.338602572679519653 0.244210243225097656 0.179005071520805359
0.0560138188302516937 0.231732875108718872 0.191638514399528503
0.0526295863091945648 0.227573618292808533 0.19238714873790741
0.0492529533803462982 0.22341446578502655 0.193169519305229187
0.0323967598378658295 0.219255506992340088 0.197188660502433777
0.0357636772096157074 0.219255506992340088 0.196367189288139343
0.0391339324414730072 0.219255506992340088 0.1955595463514328
0.0425074659287929535 0.219255506992340088 0.194765672087669373
0.0458842180669307709 0.219255506992340088 0.19398556649684906
0.0257412008941173553 0.206780850887298584 0.199139878153800964
0.341970324516296387 0.198467254638671875 0.179993197321891785
0.265919148921966553 0.327308148145675659 0.177491828799247742
0.331509858369827271 0.302443653345108032 0.180010899901390076
0.335147589445114136 0.277517795562744141 0.178709551692008972
0.0592000596225261688 0.240061312913894653 0.189953908324241638
0.0558002255856990814 0.235897153615951538 0.190649613738059998
0.338738918304443359 0.231732875108718872 0.177899584174156189
0.049022328108549118 0.2275686115026474 0.192142531275749207
0.0355115048587322235 0.223404437303543091 0.195324286818504333
0.0388860218226909637 0.223404437303543091 0.194515570998191833
0.0422638319432735443 0.223404437303543091 0.193720683455467224
0.0456448458135128021 0.223404437303543091 0.192939683794975281
0.272763490676879883 0.343974828720092773 0.178798779845237732
0.26936611533164978 0.335704058408737183 0.177590474486351013
0.331701010465621948 0.294215947389602661 0.17834918200969696
0.335337370634078979 0.265078753232955933 0.177117273211479187
0.0352616868913173676 0.231732875108718872 0.194291219115257263
0.0521877221763134003 0.231732875108718872 0.190381094813346863
0.0386428050696849823 0.227563589811325073 0.193491443991661072
0.0420248024165630341 0.227563589811325073 0.192695602774620056
0.0454100184142589569 0.227563589811325073 0.191913589835166931
0.338859021663665771 0.223394408822059631 0.176925882697105408
0.262539535760879517 0.327538430690765381 0.175342127680778503
0.069062747061252594 0.256775170564651489 0.186177358031272888
0.0656314268708229065 0.25260239839553833 0.186752244830131531
0.335505515336990356 0.25260239839553833 0.175706550478935242
0.0622062049806118011 0.248429089784622192 0.187361285090446472
0.0587873570621013641 0.244255393743515015 0.188004478812217712
0.0553752295672893524 0.240081384778022766 0.188681766390800476
0.0350238941609859467 0.235907182097434998 0.193307802081108093
0.0519700907170772552 0.235907182097434998 0.189393028616905212
0.0384043119847774506 0.231732875108718872 0.192487165331840515
0.0485722534358501434 0.231732875108718872 0.190138265490531921
0.269427746534347534 0.340100914239883423 0.176084920763969421
0.266013562679290771 0.331805139780044556 0.174928233027458191
0.0381705425679683685 0.235912203788757324 0.191502854228019714
0.0415583513677120209 0.231732875108718872 0.190695092082023621
0.0449517481029033661 0.231732875108718872 0.189911171793937683
0.0379415266215801239 0.240101456642150879 0.190538510680198669
0.0515370480716228485 0.240101456642150879 0.187427088618278503
0.0413286052644252777 0.235917210578918457 0.189709767699241638
0.0447260551154613495 0.235917210578918457 0.18892495334148407
0.0481266789138317108 0.235917210578918457 0.188154026865959167
0.266069769859313965 0.336204469203948975 0.173402115702629089
0.262623429298400879 0.332045376300811768 0.172779306769371033
0.0650436952710151672 0.256865471601486206 0.183859452605247498
0.0581673495471477509 0.248489290475845337 0.185075804591178894
0.0377172790467739105 0.244300529360771179 0.189594253897666931
0.0547388605773448944 0.244300529360771179 0.185735329985618591
0.0411035530269145966 0.240111485123634338 0.188744589686393738
0.0445049367845058441 0.240111485123634338 0.187958821654319763
0.0613948963582515717 0.252702713012695312 0.183450087904930115
0.047685619443655014 0.240121513605117798 0.18618987500667572
0.346261471509933472 0.185617029666900635 0.173932656645774841
0.379694104194641113 0.118815667927265167 0.185351118445396423
0.0406511388719081879 0.244330629706382751 0.186804279685020447
0.0440604798495769501 0.244330629706382751 0.18601672351360321
0.0508886687457561493 0.244330629706382751 0.184483394026756287
0.346363753080368042 0.181369170546531677 0.1731557697057724
0.0610029362142086029 0.256955742835998535 0.181560501456260681
0.0575517229735851288 0.252752870321273804 0.182167813181877136
0.054106932133436203 0.248549476265907288 0.182809457182884216
0.0472491048276424408 0.244345679879188538 0.184246048331260681
0.406847894191741943 0.101898267865180969 0.190888091921806335
0.383539199829101562 0.114239372313022614 0.183516070246696472
0.403656572103500366 0.101743340492248535 0.189201697707176208
0.0433927290141582489 0.248589605093002319 0.183098956942558289
0.0468171946704387665 0.248589605093002319 0.182322606444358826
0.0502448044717311859 0.248589605093002319 0.18156026303768158
0.390342891216278076 0.105755731463432312 0.184940561652183533
0.0569405220448970795 0.257046043872833252 0.179280683398246765
0.0498252920806407928 0.252853184938430786 0.179655715823173523
0.380826890468597412 0.122194148600101471 0.178822621703147888
0.387397348880767822 0.109636098146438599 0.181722745299339294
0.394135147333145142 0.105455830693244934 0.183597251772880554
0.0461660437285900116 0.252878278493881226 0.179422900080680847
0.0530481003224849701 0.252878278493881226 0.177907034754753113
0.397747784852981567 0.105305865406990051 0.183263406157493591
0.401168614625930786 0.105305865406990051 0.183936581015586853
0.404586672782897949 0.105305865406990051 0.184623703360557556
0.408001869916915894 0.105305865406990051 0.185324832797050476
0.411414176225662231 0.105305865406990051 0.186039969325065613
0.04596724733710289 0.257136315107345581 0.17853759229183197
0.0528565458953380585 0.257136315107345581 0.1770201176404953
0.377896785736083984 0.130339309573173523 0.175211712718009949
0.391194909811019897 0.109346114099025726 0.180364474654197693
0.404909610748291016 0.109346114099025726 0.183034226298332214
0.411750108003616333 0.109346114099025726 0.184453174471855164
0.415036946535110474 0.105155915021896362 0.18578086793422699
0.384701937437057495 0.117600202560424805 0.176973983645439148
0.388046473264694214 0.113399237394332886 0.178155228495597839
0.405228734016418457 0.113399237394332886 0.181463524699211121
0.394816875457763672 0.109201125800609589 0.180017098784446716
0.398250997066497803 0.109201125800609589 0.180678293108940125
0.401682406663894653 0.109201125800609589 0.181353554129600525
0.415379524230957031 0.109201125800609589 0.184194788336753845
0.418664813041687012 0.105005964636802673 0.18553750216960907
0.422076135873794556 0.105005964636802673 0.186296209692955017
0.0489708594977855682 0.257196515798568726 0.175776585936546326
0.381610691547393799 0.125885173678398132 0.174305543303489685
0.391673564910888672 0.113259211182594299 0.177793547511100769
0.395116835832595825 0.113259211182594299 0.178441867232322693
0.398557394742965698 0.113259211182594299 0.17910437285900116
0.401995241641998291 0.113259211182594299 0.179780885577201843
0.419014006853103638 0.109056130051612854 0.18395213782787323
0.0490494035184383392 0.286939799785614014 0.176133140921592712
0.378486692905426025 0.13420027494430542 0.171727463603019714
0.388511300086975098 0.117330096662044525 0.175600573420524597
0.398860126733779907 0.117330096662044525 0.177549287676811218
0.382044762372970581 0.129858836531639099 0.171803936362266541
0.385330319404602051 0.121413677930831909 0.173438534140586853
0.388791441917419434 0.121413677930831909 0.174060985445976257
0.392148971557617188 0.117195047438144684 0.17524014413356781
0.395602673292160034 0.117195047438144684 0.175890490412712097
0.422875136137008667 0.108766153454780579 0.182738170027732849
0.426297903060913086 0.108766153454780579 0.183514103293418884
0.385600775480270386 0.125509873032569885 0.171916887164115906
0.395994991064071655 0.125509873032569885 0.173830136656761169
0.392435520887374878 0.121283605694770813 0.173701032996177673
0.429947197437286377 0.108621157705783844 0.18331889808177948
0.375662118196487427 0.142334386706352234 0.167234465479850769
0.389249682426452637 0.125384777784347534 0.171542569994926453
0.392718523740768433 0.125384777784347534 0.172181114554405212
0.43031194806098938 0.112699121236801147 0.181754514575004578
0.386045396327972412 0.129498466849327087 0.169415280222892761
0.389522969722747803 0.129498466849327087 0.170040711760520935
