ply
format ascii 1.0
element vertex 720
property float x
property float y
property float z
end_header
-0.210162058472633362 -0.0654373094439506531 0.145118430256843567
-0.231969729065895081 -0.0711989477276802063 0.146572425961494446
-0.205763176083564758 -0.0711989477276802063 0.145158261060714722
-0.196966156363487244 -0.0827158093452453613 0.145324558019638062
-0.1925688236951828 -0.0884707719087600708 0.145450949668884277
-0.131320208311080933 -0.157295539975166321 0.149190649390220642
-0.219092637300491333 -0.054014250636100769 0.144049972295761108
-0.21471308171749115 -0.054014250636100769 0.143819555640220642
-0.210308313369750977 -0.0597884543240070343 0.14381350576877594
-0.2059030681848526 -0.0655608400702476501 0.143836319446563721
-0.201497748494148254 -0.0713312849402427673 0.143888145685195923
-0.236453220248222351 -0.0770996436476707458 0.146039426326751709
-0.197092726826667786 -0.0770996436476707458 0.143968775868415833
-0.240775167942047119 -0.0828657671809196472 0.146608114242553711
-0.192688390612602234 -0.0828657671809196472 0.14407840371131897
-0.126963585615158081 -0.151834964752197266 0.147625818848609924
-0.223611384630203247 -0.0541201569139957428 0.143217086791992188
-0.210452750325202942 -0.0541201569139957428 0.142524853348731995
-0.227965444326400757 -0.0599031746387481689 0.143684089183807373
-0.206041261553764343 -0.0599031746387481689 0.142530709505081177
-0.232312813401222229 -0.0656843781471252441 0.144179642200469971
-0.201629474759101868 -0.0656843781471252441 0.142565444111824036
-0.219385027885437012 -0.0484325625002384186 0.141703128814697266
-0.214990884065628052 -0.0484325625002384186 0.141471967101097107
-0.210595354437828064 -0.0484325625002384186 0.141252651810646057
-0.20619848370552063 -0.0484325625002384186 0.141045123338699341
-0.201780825853347778 -0.054226066917181015 0.141045764088630676
-0.236813649535179138 -0.0715959668159484863 0.143631011247634888
-0.241153091192245483 -0.0773819312453269958 0.14418455958366394
-0.210754305124282837 -0.0369205251336097717 0.13983452320098877
-0.215139448642730713 -0.042725786566734314 0.140216603875160217
-0.206331431865692139 -0.042725786566734314 0.139789000153541565
-0.22391839325428009 -0.048529651015996933 0.140870824456214905
-0.228289291262626648 -0.0543319806456565857 0.14132225513458252
-0.232653692364692688 -0.0601326227188110352 0.141802355647087097
-0.237011179327964783 -0.0659314468502998352 0.142311155796051025
-0.245658382773399353 -0.0833156108856201172 0.143695563077926636
-0.210891306400299072 -0.0311846286058425903 0.138612180948257446
-0.206478029489517212 -0.0311846286058425903 0.138403892517089844
-0.215286046266555786 -0.036999974399805069 0.138977751135826111
-0.219675436615943909 -0.042814057320356369 0.139372184872627258
-0.241528615355491638 -0.0718606561422348022 0.141776323318481445
-0.211026445031166077 -0.0254299622029066086 0.137406483292579651
-0.206605672836303711 -0.0254299622029066086 0.137197896838188171
-0.215430676937103271 -0.0312552563846111298 0.137755542993545532
-0.219829767942428589 -0.0370794273912906647 0.138133525848388672
-0.228610962629318237 -0.0487238354980945587 0.138976171612739563
-0.232992291450500488 -0.0545437932014465332 0.139440774917602539
-0.237366914749145508 -0.0603620633482933044 0.139934122562408447
-0.246051564812660217 -0.0778053775429725647 0.141271814703941345
-0.211159706115722656 -0.0196566637605428696 0.136217623949050903
-0.206731542944908142 -0.0196566637605428696 0.136008650064468384
-0.215573325753211975 -0.025491766631603241 0.136550098657608032
-0.22436407208442688 -0.042990606278181076 0.137464866042137146
-0.24190172553062439 -0.0663020536303520203 0.139383599162101746
-0.246268391609191895 -0.0721253380179405212 0.13993525505065918
-0.206855610013008118 -0.0138648664578795433 0.134836241602897644
-0.220116123557090759 -0.0313965156674385071 0.13583509624004364
-0.224526152014732361 -0.0372383296489715576 0.136226072907447815
-0.228930458426475525 -0.0430788770318031311 0.136646047234535217
-0.233328640460968018 -0.048918016254901886 0.137095004320144653
-0.237720310688018799 -0.0547556132078170776 0.137572780251502991
-0.242105081677436829 -0.0605915114283561707 0.13807949423789978
-0.250807613134384155 -0.0780876725912094116 0.139444619417190552
-0.206977903842926025 -0.0080547090619802475 0.133680790662765503
-0.211411848664283752 -0.0139090167358517647 0.133967936038970947
-0.21584145724773407 -0.0197626166045665741 0.134284272789955139
-0.220266327261924744 -0.0256153717637062073 0.134629592299461365
-0.237910568714141846 -0.0490151084959506989 0.136301472783088684
-0.242305859923362732 -0.0548615194857120514 0.136791855096817017
-0.246656477451324463 -0.0665491223335266113 0.137542784214019775
-0.251032888889312744 -0.0723900273442268372 0.138107866048812866
-0.207098394632339478 -0.00222632871009409428 0.132542356848716736
-0.211541324853897095 -0.00809003040194511414 0.132812738418579102
-0.202641397714614868 -0.00809003040194511414 0.132404744625091553
-0.21598014235496521 -0.0139531660825014114 0.133112296462059021
-0.224826857447624207 -0.0315377712249755859 0.133928030729293823
-0.229247733950614929 -0.037397235631942749 0.134332120418548584
-0.233662694692611694 -0.0432554259896278381 0.134765192866325378
-0.246868059039115906 -0.0608209595084190369 0.13623848557472229
-0.20721706748008728 0.00362013513222336769 0.131421014666557312
-0.202759131789207458 0.00362013513222336769 0.131222695112228394
-0.211668908596038818 -0.00225282018072903156 0.13167455792427063
-0.216116815805435181 -0.00812535174190998077 0.131957292556762695
-0.220548570156097412 -0.0198685731738805771 0.132364213466644287
-0.233840286731719971 -0.0374766848981380463 0.133526653051376343
-0.23825913667678833 -0.0433437004685401917 0.133972346782684326
-0.242671504616737366 -0.049209296703338623 0.134447097778320312
-0.247076958417892456 -0.0550733357667922974 0.134950786828994751
-0.251435965299606323 -0.0667961910367012024 0.135715708136558533
-0.255775421857833862 -0.0785111188888549805 0.136560812592506409
-0.207333937287330627 0.00948454253375530243 0.130316883325576782
-0.202869117259979248 0.00948454253375530243 0.130118235945701599
-0.211794555187225342 0.00360247353091835976 0.130553469061851501
-0.220694571733474731 -0.0140414657071232796 0.131192311644554138
-0.225125417113304138 -0.0258007850497961044 0.131646320223808289
-0.22956278920173645 -0.0316790267825126648 0.132034391164779663
-0.238444462418556213 -0.037556137889623642 0.132734000682830811
-0.242867156863212585 -0.0434319712221622467 0.133192300796508789
-0.216378971934318542 -0.00230580312199890614 0.129741892218589783
-0.225280970335006714 -0.0199745260179042816 0.130457580089569092
-0.229728057980537415 -0.0258625876158475876 0.130829006433486938
-0.234169632196426392 -0.0317496582865715027 0.131229624152183533
-0.243060216307640076 -0.0376355871558189392 0.131954267621040344
-0.247457250952720642 -0.0494034774601459503 0.132606402039527893
-0.251836419105529785 -0.0611651279032230377 0.133339241147041321
-0.256196379661560059 -0.0729193985462188721 0.134152576327323914
-0.207563087344169617 0.015366753563284874 0.128151729702949524
-0.203084811568260193 0.015366753563284874 0.127952516078948975
-0.212039098143577576 0.00946688093245029449 0.128371670842170715
-0.21651160717010498 0.00356715056113898754 0.12862105667591095
-0.220972657203674316 -0.00823131483048200607 0.128960460424423218
-0.234342440962791443 -0.02592439204454422 0.130024433135986328
-0.238788127899169922 -0.0318202823400497437 0.130437657237052917
-0.247660800814628601 -0.0436085201799869537 0.131351664662361145
-0.25205346941947937 -0.0553910620510578156 0.132051154971122742
-0.256427377462387085 -0.0671667903661727905 0.132831275463104248
-0.260781079530715942 -0.0789345651865005493 0.133691951632499695
-0.225575163960456848 -0.0141739146783947945 0.128209277987480164
-0.230038568377494812 -0.0200804825872182846 0.128564447164535522
-0.238968446850776672 -0.0259861946105957031 0.129232794046401978
-0.243418186902999878 -0.0318909138441085815 0.129658624529838562
-0.212281718850135803 0.015366753563284874 0.126207143068313599
-0.21676972508430481 0.00944921933114528656 0.12643982470035553
-0.221248611807823181 -0.00238527776673436165 0.126745507121086121
-0.248035803437232971 -0.0378739424049854279 0.129039883613586426
-0.252448499202728271 -0.0496947504580020905 0.129706904292106628
-0.256842762231826782 -0.0615092962980270386 0.130454868078231812
-0.261217206716537476 -0.073316425085067749 0.131283655762672424
-0.265624016523361206 -0.0792168602347373962 0.131907552480697632
-0.225867152214050293 -0.00833727698773145676 0.125977799296379089
-0.230346769094467163 -0.0142622143030166626 0.12631671130657196
-0.23482125997543335 -0.0201864354312419891 0.126685038208961487
-0.243773579597473145 -0.0261098034679889679 0.127379432320594788
-0.252659976482391357 -0.0438733324408531189 0.128451913595199585
-0.261456608772277832 -0.0675373971462249756 0.129961833357810974
-0.212522372603416443 0.0213019493967294693 0.124059952795505524
-0.208018630743026733 0.0213019493967294693 0.123847447335720062
-0.203513607382774353 0.0213019493967294693 0.12364698201417923
-0.239468052983283997 -0.0202394146472215652 0.125894472002983093
-0.248408153653144836 -0.0321028009057044983 0.12674461305141449
-0.257255375385284424 -0.055814698338508606 0.128094479441642761
-0.266075283288955688 -0.0735811144113540649 0.129499688744544983
-0.235143467783927917 -0.0143505139276385307 0.124437816441059113
-0.261886954307556152 -0.0618534646928310394 0.127585560083389282
-0.203725814819335938 0.0272723231464624405 0.121516183018684387
-0.24429398775100708 -0.020345369353890419 0.124042175710201263
-0.248777806758880615 -0.0262952130287885666 0.124465800821781158
-0.25323033332824707 -0.0381917506456375122 0.125067204236984253
-0.257665157318115234 -0.0500831268727779388 0.125750169157981873
-0.266523599624633789 -0.0679079964756965637 0.127107605338096619
-0.208358198404312134 0.0272899847477674484 0.12063898891210556
-0.239965170621871948 -0.0144388135522603989 0.122572667896747589
-0.262314409017562866 -0.0561324246227741241 0.125225305557250977
-0.266768276691436768 -0.0620829127728939056 0.125801995396614075
-0.199407756328582764 0.0273076463490724564 0.119169794023036957
-0.244644179940223694 -0.0144829638302326202 0.12179633229970932
-0.253617078065872192 -0.032385312020778656 0.122772060334682465
-0.258072108030319214 -0.044314701110124588 0.123422123491764069
-0.208581775426864624 0.0333042256534099579 0.118526600301265717
-0.235771775245666504 -0.00854920409619808197 0.120055750012397766
-0.249319016933441162 -0.0205043014138936996 0.121129497885704041
-0.262738943099975586 -0.050374399870634079 0.122881241142749786
-0.267210513353347778 -0.0563442409038543701 0.123442232608795166
-0.204151079058647156 0.0333307161927223206 0.117246270179748535
-0.199605047702789307 0.0333307161927223206 0.117056332528591156
-0.258476167917251587 -0.0385095551609992981 0.121110528707504272
-0.204252317547798157 0.0393533520400524139 0.116229631006717682
-0.231538102030754089 -0.00861984584480524063 0.117628097534179688
-0.254181951284408569 -0.0266042333096265793 0.119419872760772705
-0.267649710178375244 -0.0505685806274414062 0.121098734438419342
-0.199800670146942139 0.0393886752426624298 0.114960774779319763
-0.195245862007141113 0.0333837009966373444 0.114720657467842102
-0.263354629278182983 -0.0446677915751934052 0.11948152631521225
-0.250031828880310059 -0.0147037124261260033 0.11673533171415329
-0.259064912796020508 -0.0327384546399116516 0.117742575705051422
-0.209145739674568176 0.0394593141973018646 0.113197937607765198
-0.263773262500762939 -0.0388273634016513824 0.117170050740242004
-0.268286645412445068 -0.0448443330824375153 0.117700152099132538
-0.204673945903778076 0.0455255173146724701 0.111996084451675415
-0.200095281004905701 0.0455255173146724701 0.11180482804775238
-0.19552244246006012 0.0394946373999118805 0.111545860767364502
-0.213969200849533081 0.0274489372968673706 0.111151546239852905
-0.227706760168075562 -0.00275615905411541462 0.111918926239013672
-0.245997533202171326 -0.00879645161330699921 0.113117434084415436
-0.255105942487716675 -0.0208751428872346878 0.113936565816402435
-0.268719732761383057 -0.0389862656593322754 0.115389317274093628
-0.209469184279441833 0.0516616255044937134 0.110141783952713013
-0.195703431963920593 0.0456138141453266144 0.109468266367912292
-0.237014800310134888 -0.00278265052475035191 0.111386559903621674
-0.232432067394256592 -0.00278265052475035191 0.111108176410198212
-0.259838372468948364 -0.0269750542938709259 0.113317839801311493
-0.264383077621459961 -0.0330209694802761078 0.113802798092365265
-0.209571003913879395 0.057770363986492157 0.109179861843585968
-0.191202893853187561 0.0396005995571613312 0.108141854405403137
-0.214205846190452576 0.0335426479578018188 0.109040290117263794
-0.218811050057411194 0.015366753563284874 0.109189443290233612
-0.223401382565498352 0.00324924569576978683 0.109466813504695892
-0.195882827043533325 0.0517675802111625671 0.107408955693244934
-0.191283673048019409 0.0457021147012710571 0.107143118977546692
-0.21431964635848999 0.0396359190344810486 0.108024977147579193
-0.218937516212463379 0.0214344114065170288 0.10812079906463623
-0.223538920283317566 0.00929909572005271912 0.108362868428230286
-0.228135287761688232 0.00323158502578735352 0.108644023537635803
-0.241917654871940613 -0.00283563346602022648 0.109526202082633972
-0.269350558519363403 -0.0331622250378131866 0.112023323774337769
-0.200589507818222046 0.051820557564496994 0.106510646641254425
-0.219061866402626038 0.0275195837020874023 0.107069991528987885
-0.237484008073806763 0.00321392342448234558 0.108114048838615417
-0.232880949974060059 0.00321392342448234558 0.107834406197071075
-0.209898948669433594 0.0640369877219200134 0.106081217527389526
-0.219184085726737976 0.0336221233010292053 0.106037154793739319
-0.223808467388153076 0.015366753563284874 0.106199413537979126
-0.233032211661338806 0.00928143411874771118 0.106731221079826355
-0.228420600295066833 0.00928143411874771118 0.10646355152130127
-0.242246270179748535 0.00319626182317733765 0.107330411672592163
-0.246845439076423645 -0.00288861664012074471 0.107679896056652069
-0.251439213752746582 -0.00897305551916360855 0.108059525489807129
-0.256027191877365112 -0.015056908130645752 0.108469404280185699
-0.265184164047241211 -0.027222268283367157 0.109379380941390991
-0.19153749942779541 0.0519265122711658478 0.104004763066768646
-0.233179807662963867 0.0214609038084745407 0.105654694139957428
-0.223941564559936523 0.0214609038084745407 0.105131149291992188
-0.228562667965888977 0.015366753563284874 0.105377763509750366
-0.237796425819396973 0.00927260331809520721 0.105935156345367432
-0.26997828483581543 -0.0272840708494186401 0.108673840761184692
-0.210110858082771301 0.0702759325504302979 0.104078955948352814
-0.20088060200214386 0.0580793842673301697 0.103392265737056732
-0.196248501539230347 0.0580793842673301697 0.103211283683776855
-0.191615313291549683 0.0580793842673301697 0.103042714297771454
-0.219431653618812561 0.0397772043943405151 0.10394500195980072
-0.228698894381523132 0.0275725666433572769 0.104336723685264587
-0.224072426557540894 0.0275725666433572769 0.104080788791179657
-0.237950727343559265 0.0214697346091270447 0.104859068989753723
-0.260984212160110474 -0.0212459824979305267 0.106762737035751343
-0.205590248107910156 0.0703553855419158936 0.102795600891113281
-0.2009686678647995 0.0642488747835159302 0.102449007332324982
-0.19169163703918457 0.0642488747835159302 0.102098949253559113
-0.228833913803100586 0.0337015986442565918 0.103304833173751831
-0.224201038479804993 0.0337015986442565918 0.103048510849475861
-0.242733210325241089 0.00925494171679019928 0.104076690971851349
-0.251972317695617676 -0.00296809105202555656 0.104773148894309998
-0.256583690643310547 -0.00907902047038078308 0.105166889727115631
-0.261189043521881104 -0.0151893571019172668 0.105590894818305969
-0.270401924848556519 -0.0212989617139101028 0.106413371860980988
-0.265787988901138306 -0.0212989617139101028 0.106045156717300415
-0.219677060842514038 0.0459670126438140869 0.101871185004711151
-0.247523009777069092 0.00312561634927988052 0.103334590792655945
-0.205833613872528076 0.0582647919654846191 0.100352063775062561
-0.229107469320297241 0.0398831665515899658 0.101214319467544556
-0.243056520819664001 0.015366753563284874 0.101916387677192688
-0.270822316408157349 -0.015277656726539135 0.104170173406600952
-0.266194462776184082 -0.015277656726539135 0.103800825774669647
-0.257137268781661987 -0.00304756569676101208 0.101881712675094604
-0.206060022115707397 0.0522443763911724091 0.0980786681175231934
-0.21073448657989502 0.0460994616150856018 0.0981866568326950073
-0.243377134203910828 0.0215138867497444153 0.0997741147875785828
-0.248030215501785278 0.00921961851418018341 0.100082062184810638
-0.266597747802734375 -0.00922030303627252579 0.101573958992958069
-0.215518474578857422 0.0461436137557029724 0.0973291322588920593
-0.252851277589797974 0.00305497110821306705 0.0993548408150672913
-0.215628087520599365 0.0523503310978412628 0.0963511988520622253
-0.248366937041282654 0.015366753563284874 0.0979225859045982361
-0.225122362375259399 0.0462319105863571167 0.095653727650642395
-0.26252785325050354 -0.00315353181213140488 0.0979319736361503601
-0.234645873308181763 0.0339135304093360901 0.0949625670909881592
-0.239335432648658752 0.0277315191924571991 0.0952016115188598633
-0.258049935102462769 0.00300198723562061787 0.0964655503630638123
-0.267386585474014282 -0.00318002328276634216 0.0972183719277381897
-0.253553062677383423 0.00917546451091766357 0.0950287580490112305
-0.26758912205696106 0.00298432563431560993 0.0960998609662055969
-0.220812529325485229 0.0525622405111789703 0.0922759473323822021
-0.230223804712295532 0.0463643632829189301 0.0926829278469085693
-0.239637479186058044 0.0339665114879608154 0.0930950790643692017
-0.225646555423736572 0.0526152141392230988 0.091446414589881897
-0.235079869627952576 0.0402010567486286163 0.0917972251772880554
-0.244499877095222473 0.0277845039963722229 0.0922719165682792664
-0.221053391695022583 0.0588828288018703461 0.0902404636144638062
-0.263474225997924805 0.00293134176172316074 0.092518143355846405
-0.230633243918418884 0.052721172571182251 0.0895538404583930969
-0.249539166688919067 0.021593363955616951 0.0904051885008811951
-0.230758503079414368 0.0590064376592636108 0.0885965228080749512
-0.235511302947998047 0.0465409606695175171 0.0886508002877235413
-0.244975954294204712 0.0340724773705005646 0.0890908166766166687
-0.249702543020248413 0.0278374869376420975 0.0893574059009552002
-0.254426240921020508 0.015366753563284874 0.089645877480506897
-0.259140640497207642 0.00913131050765514374 0.0899927839636802673
-0.235645025968551636 0.0528271235525608063 0.0876755118370056152
-0.245127320289611816 0.0403423421084880829 0.088079407811164856
-0.240399658679962158 0.0403423421084880829 0.0877794027328491211
-0.264042079448699951 0.00912247970700263977 0.0892694666981697083
-0.24054206907749176 0.0466292612254619598 0.0867861509323120117
-0.254773467779159546 0.0216198563575744629 0.0875055566430091858
-0.235923707485198975 0.0591918453574180603 0.0856429934501647949
-0.240681827068328857 0.0529330819845199585 0.0858115032315254211
-0.2501983642578125 0.034151952713727951 0.086177825927734375
-0.259866297245025635 0.015366753563284874 0.0856865569949150085
-0.0456096343696117401 -0.0410520061850547791 0.0838364735245704651
-0.236347272992134094 0.0656614452600479126 0.0825539305806159973
-0.24591962993144989 0.0468058586120605469 0.0827852264046669006
-0.255466341972351074 0.0279434565454721451 0.0832342579960823059
-0.260226786136627197 0.0216551795601844788 0.0835471823811531067
-0.0407282263040542603 -0.072602294385433197 0.0829831063747406006
-0.26040312647819519 0.0279611162841320038 0.0825005993247032166
-0.0406327508389949799 -0.079007171094417572 0.0821763277053833008
-0.25102648138999939 0.0405895896255970001 0.0808670595288276672
-0.246387168765068054 0.0532509423792362213 0.0796611160039901733
-0.251181125640869141 0.0469383075833320618 0.0798754468560218811
-0.25598183274269104 0.034310903400182724 0.0800563693046569824
-0.246485590934753418 0.0722622200846672058 0.0790034234523773193
-0.2561320960521698 0.0469824597239494324 0.0791301354765892029
-0.256089568138122559 0.0976347774267196655 0.0793922543525695801
-0.255789071321487427 0.15460735559463501 0.0812448561191558838
-0.251147568225860596 0.173945501446723938 0.0800906047224998474
-0.251239866018295288 0.180483818054199219 0.0794986635446548462
-0.0511781536042690277 0.00877807848155498505 0.0438351407647132874
-0.0459488853812217712 0.00876041688024997711 0.0419011525809764862
-0.0406942293047904968 0.00874275621026754379 0.0399818532168865204
-0.0507514104247093201 0.00211891811341047287 0.0395502224564552307
-0.0607167109847068787 0.00210125674493610859 0.0380644425749778748
-0.0556797198951244354 0.00210125674493610859 0.03826131671667099
-0.0456096269190311432 0.00210125674493610859 0.0386957190930843353
-0.0352867767214775085 0.00871626380831003189 0.0369998328387737274
-0.04021424800157547 0.0020482728723436594 0.0356995798647403717
-0.0553821809589862823 -0.0046105668880045414 0.0350739769637584686
-0.0503266490995883942 -0.0046105668880045414 0.0352852195501327515
-0.060344986617565155 -0.00463705835863947868 0.0337973646819591522
-0.0451583676040172577 -0.00463705835863947868 0.0344319194555282593
-0.0298407431691884995 0.00868977140635251999 0.0340334475040435791
-0.0703949034214019775 -0.00466354982927441597 0.0323630236089229584
-0.0398573204874992371 -0.00469004129990935326 0.0325150750577449799
-0.0244971420615911484 0.00867210980504751205 0.0321597233414649963
-0.0549858175218105316 -0.0114102084189653397 0.0308280773460865021
-0.0499039031565189362 -0.0114102084189653397 0.0310404561460018158
-0.0599750243127346039 -0.0114455297589302063 0.0295505188405513763
-0.0447092466056346893 -0.0114455297589302063 0.0301884151995182037
-0.019128553569316864 0.00865444820374250412 0.0303011927753686905
-0.0751776918768882751 -0.0114808492362499237 0.0279564391821622849
-0.0700777545571327209 -0.0114808492362499237 0.0281144790351390839
-0.0240782871842384338 0.00192464352585375309 0.0289587657898664474
-0.0186898224055767059 0.00188932043965905905 0.0271014347672462463
-0.0543900132179260254 -0.0183681361377239227 0.0244457069784402847
-0.0594189055263996124 -0.0184122864156961441 0.0231667608022689819
-0.0182538460940122604 -0.00492846500128507614 0.0239217858761548996
-0.064462415874004364 -0.0184564366936683655 0.0219010543078184128
-0.0695204585790634155 -0.0185005851089954376 0.0206487756222486496
-0.0743713900446891785 -0.0186771843582391739 0.0161715205758810043
-0.0588646568357944489 -0.0254841689020395279 0.0168043747544288635
-0.063947729766368866 -0.0255371462553739548 0.0155374063178896904
-0.0794181153178215027 -0.0255901217460632324 0.0139765487983822823
-0.0742312520742416382 -0.0255901217460632324 0.0141232414171099663
-0.0690453425049781799 -0.0255901217460632324 0.0142839290201663971
-0.0792919918894767761 -0.0325373820960521698 0.0119486311450600624
0.00915826577693223953 -0.00519338017329573631 0.014874420128762722
-0.0740186944603919983 -0.032599184662103653 0.0110165923833847046
-0.0687329322099685669 -0.0326609872281551361 0.0100989267230033875
0.0149018513038754463 -0.00527285505086183548 0.0120385885238647461
-0.105137549340724945 -0.0397306755185127258 0.0061756637878715992
0.0100513668730854988 -0.01222259271889925 0.00957437511533498764
-0.0473466664552688599 -0.0260669160634279251 0.00536340009421110153
0.0156401712447404861 -0.0122932353988289833 0.00781481713056564331
-0.110289201140403748 -0.033031810075044632 0.00271964981220662594
-0.0997811630368232727 -0.0399425625801086426 0.00301404413767158985
-0.0628783628344535828 -0.00540531240403652191 0.00231569260358810425
-0.0627968534827232361 -0.0123638752847909927 0.00130794337019324303
0.0212532095611095428 -0.0123638752847909927 0.00607139663770794868
-0.0522862039506435394 -0.026225849986076355 0.00190934014972299337
-0.104964971542358398 -0.0331554189324378967 0.000623334490228444338
0.0266893748193979263 -0.0123991984874010086 0.0054166051559150219
0.0109408870339393616 -0.0193394310772418976 0.00429557403549551964
-0.110205322504043579 -0.0262788254767656326 -0.000653656490612775087
0.0323439016938209534 -0.0124698374420404434 0.00370508315972983837
-0.110148802399635315 -0.0194277316331863403 -0.00292704976163804531
-0.0466912314295768738 -0.0194277316331863403 -0.0012177338358014822
0.0165624506771564484 -0.0194277316331863403 0.00253872643224895
-0.104826539754867554 -0.0264377593994140625 -0.00383021659217774868
-0.0624751187860965729 -0.0334026329219341278 -0.00266997469589114189
-0.0889579355716705322 -0.0473286844789981842 -0.00309000676497817039
-0.110092766582965851 -0.0125404810532927513 -0.00518039613962173462
-0.0410679429769515991 -0.0195601768791675568 -0.00421658530831336975
0.0224025528877973557 -0.0195601768791675568 -0.000274915219051763415
-0.0994532033801078796 -0.0335262380540370941 -0.00577807379886507988
-0.115356706082820892 0.00137714098673313856 -0.00751531589776277542
-0.110037237405776978 -0.00561724463477730751 -0.00741363316774368286
-0.104722298681735992 -0.0196043271571397781 -0.00718416972085833549
-0.0569030791521072388 -0.0335880443453788757 -0.00571289099752902985
-0.0941031202673912048 -0.0405782125890254974 -0.00661025801673531532
-0.11533597856760025 0.0083630317822098732 -0.00862701795995235443
0.0280791111290454865 -0.0196484774351119995 -0.00199885619804263115
-0.00900366529822349548 -0.02664966881275177 -0.0045404825359582901
-0.0834233462810516357 -0.0476464889943599701 -0.00728515908122062683
-0.115315631031990051 0.015366753563284874 -0.00971816852688789368
-0.109982214868068695 0.00134181778412312269 -0.0096265086904168129
-0.104652240872383118 -0.0126817664131522179 -0.00943783111870288849
-0.0993273407220840454 -0.0267026443034410477 -0.00915213674306869507
0.0123695963993668556 -0.0267026443034410477 -0.00418304838240146637
-0.0940023958683013916 -0.033711649477481842 -0.00892443768680095673
-0.0886807739734649658 -0.0407194718718528748 -0.00866181496530771255
-0.0780371949076652527 -0.0477259419858455658 -0.00822797790169715881
-0.189717039465904236 0.169537723064422607 -0.00499241240322589874
-0.115295670926570892 0.022388136014342308 -0.0107885785400867462
-0.109954573214054108 0.00834537018090486526 -0.0107382098212838173
-0.0992828086018562317 -0.019736776128411293 -0.0103460410609841347
0.0178561825305223465 -0.0267556235194206238 -0.00486236205324530602
-0.0886193588376045227 -0.0337734520435333252 -0.00989650655537843704
-0.0832927227020263672 -0.0407900996506214142 -0.00961919594556093216
-0.0726264864206314087 -0.0407900996506214142 -0.0093318624421954155
-0.184532135725021362 0.155745834112167358 -0.007084693294018507
-0.109927445650100708 0.015366753563284874 -0.0118292979896068573
-0.104582823812961578 -0.00572321098297834396 -0.0116712572053074837
-0.0992390364408493042 -0.0127524062991142273 -0.0115195214748382568
-0.0832097083330154419 -0.0197809264063835144 -0.0111024519428610802
0.0339873209595680237 -0.0197809264063835144 -0.00477820448577404022
-0.0939025506377220154 -0.0268086008727550507 -0.0112187601625919342
-0.0885589569807052612 -0.0268086008727550507 -0.0111108366400003433
-0.0778920426964759827 -0.0408607274293899536 -0.0105618257075548172
-0.195110931992530823 0.18391399085521698 -0.00602285610511898994
-0.115255944430828094 0.0294446740299463272 -0.0129189984872937202
-0.10454762727022171 0.00128883309662342072 -0.0128036355599761009
-0.0831370800733566284 0.00128883309662342072 -0.0124000571668148041
-0.0991960316896438599 -0.00574970245361328125 -0.0126725137233734131
-0.0938505828380584717 -0.0198250766843557358 -0.0124127911403775215
-0.0884995684027671814 -0.0198250766843557358 -0.0123047418892383575
-0.0777997821569442749 -0.0198250766843557358 -0.0120453974232077599
0.0395041145384311676 -0.0198250766843557358 -0.0053973151370882988
-0.0724909156560897827 -0.0479642972350120544 -0.0113135082647204399
-0.152740895748138428 0.0858174934983253479 -0.0129517791792750359
-0.147386029362678528 0.0858174934983253479 -0.0130022736266255379
-0.115236759185791016 0.0365097001194953918 -0.0139477401971817017
-0.109873957931995392 0.0224146284162998199 -0.0139803942292928696
-0.0830748900771141052 0.0224146284162998199 -0.0135113177821040154
-0.104513071477413177 0.00831887777894735336 -0.0139154009521007538
-0.0991537943482398987 0.00127117161173373461 -0.0138048920780420303
-0.0937995091080665588 -0.0128230489790439606 -0.0135863972827792168
-0.0884412005543708801 -0.0128230489790439606 -0.0134781589731574059
-0.00289775105193257332 -0.0269145537167787552 -0.00958004873245954514
-0.0670532360672950745 -0.0410019867122173309 -0.0124028939753770828
-0.211143910884857178 0.198344171047210693 -0.00654999213293194771
-0.189978882670402527 0.177327066659927368 -0.00881947670131921768
-0.17414487898349762 0.121122151613235474 -0.0123856207355856895
-0.115217968821525574 0.0435918793082237244 -0.0149555522948503494
-0.109847865998744965 0.0294799953699111938 -0.0150298755615949631
-0.10447915643453598 0.015366753563284874 -0.0150064248591661453
-0.0991123244166374207 0.0083100469782948494 -0.0149165308102965355
-0.093747064471244812 0.00125351164024323225 -0.0147913973778486252
-0.0883838534355163574 -0.00580268539488315582 -0.0146310245618224144
0.0239364858716726303 -0.0269675329327583313 -0.008744838647544384
-0.216564670205116272 0.198573127388954163 -0.00739768426865339279
-0.200640946626663208 0.191562861204147339 -0.00855092890560626984
-0.168865621089935303 0.107156775891780853 -0.0141539415344595909
-0.158155679702758789 0.0930502116680145264 -0.0148269515484571457
-0.142055034637451172 0.0930502116680145264 -0.0149786872789263725
-0.115199565887451172 0.0506910309195518494 -0.0159423723816871643
-0.109822288155555725 0.0365626849234104156 -0.0160584282130002975
-0.0829557403922080994 0.0294976569712162018 -0.0156402867287397385
-0.104445897042751312 0.0224322900176048279 -0.0160766467452049255
-0.0990716293454170227 0.015366753563284874 -0.0160074923187494278
-0.0936986804008483887 0.00830121617764234543 -0.0159030351787805557
-0.0883259773254394531 0.00830121617764234543 -0.0157945454120635986
-0.0615280494093894958 -0.0411432459950447083 -0.014379686675965786
-0.0722830221056938171 -0.0552605241537094116 -0.014352012425661087
-0.184839800000190735 0.163666099309921265 -0.0120318438857793808
-0.179558545351028442 0.142540261149406433 -0.0133866248652338982
-0.163553103804588318 0.100210420787334442 -0.0155867030844092369
-0.152815967798233032 0.0931473001837730408 -0.0159711185842752457
-0.147442340850830078 0.0931473001837730408 -0.0160217396914958954
-0.109797239303588867 0.0436625182628631592 -0.017066052183508873
-0.0828982070088386536 0.0365891754627227783 -0.0166682712733745575
-0.10441327840089798 0.0295153185725212097 -0.0171260014176368713
-0.0990317165851593018 0.0224411208182573318 -0.0170775875449180603
-0.09365120530128479 0.015366753563284874 -0.0169938709586858749
-0.0882717221975326538 0.015366753563284874 -0.0168852545320987701
-0.00775347976014018059 -0.020001675933599472 -0.0132596632465720177
0.0403385795652866364 -0.0270734857767820358 -0.009568764828145504
-0.206154286861419678 0.192003294825553894 -0.0104991011321544647
-0.195473015308380127 0.192003294825553894 -0.0108732404187321663
-0.190165609121322632 0.184971228241920471 -0.011548834852874279
-0.17428956925868988 0.128581911325454712 -0.0152943897992372513
-0.168947204947471619 0.114453896880149841 -0.0160287357866764069
-0.163583606481552124 0.107386223971843719 -0.0164045151323080063
-0.158215299248695374 0.100316330790519714 -0.0167450550943613052
-0.147457987070083618 0.100316330790519714 -0.0168608576059341431
-0.142078876495361328 0.100316330790519714 -0.0168971046805381775
-0.115161411464214325 0.0578599683940410614 -0.0179884452372789383
-0.08284711092710495 0.0507793314754962921 -0.0175812728703022003
-0.104381315410137177 0.036615666002035141 -0.0181543659418821335
-0.0989925786852836609 0.0295329801738262177 -0.0181268174201250076
-0.0936046391725540161 0.0224499516189098358 -0.0180638395249843597
0.0298665817826986313 -0.0271264631301164627 -0.0115365423262119293
-0.184945523738861084 0.171088933944702148 -0.013731829822063446
-0.17965736985206604 0.14992058277130127 -0.0151522979140281677
-0.174326002597808838 0.135791853070259094 -0.0160267818719148636
-0.16898094117641449 0.121651522815227509 -0.0168036799877882004
-0.152863651514053345 0.100422240793704987 -0.0178890321403741837
-0.082793109118938446 0.0579129494726657867 -0.018546154722571373
-0.10974583774805069 0.0508234798908233643 -0.0191329903900623322
-0.104350000619888306 0.0437331609427928925 -0.0191617365926504135
-0.0935589894652366638 0.0295506417751312256 -0.0191128812730312347
-0.0881647691130638123 0.0224587824195623398 -0.0190353412181138992
-0.0181889738887548447 -0.0200899746268987656 -0.0160492882132530212
-0.00207606027834117413 -0.0200899746268987656 -0.0150704728439450264
0.00327285542152822018 -0.0271794423460960388 -0.0146008916199207306
0.0354187339544296265 -0.0271794423460960388 -0.012167125940322876
-0.0666638612747192383 -0.0484410077333450317 -0.0176190342754125595
-0.206294551491737366 0.199489042162895203 -0.0121093187481164932
-0.200944498181343079 0.199489042162895203 -0.0123039223253726959
-0.195593267679214478 0.199489042162895203 -0.0124841518700122833
-0.21169300377368927 0.192443728446960449 -0.012431892566382885
-0.190277352929115295 0.192443728446960449 -0.0131820617243647575
-0.18498307466506958 0.178340449929237366 -0.0143356844782829285
-0.179694756865501404 0.157156497240066528 -0.0158202648162841797
-0.174361348152160645 0.143016502261161804 -0.0167374890297651291
-0.169013723731040955 0.128864198923110962 -0.0175570026040077209
-0.163653507828712463 0.114700958132743835 -0.0182787422090768814
-0.158274233341217041 0.107615664601325989 -0.0186409670859575272
-0.152883976697921753 0.107615664601325989 -0.018706275150179863
-0.147493347525596619 0.107615664601325989 -0.0187570862472057343
-0.142102450132369995 0.107615664601325989 -0.0187933966517448425
-0.115123651921749115 0.0650631934404373169 -0.020012957975268364
-0.08274029940366745 0.0650631934404373169 -0.0194897931069135666
-0.098913922905921936 0.0366686508059501648 -0.0202354248613119125
-0.0881125926971435547 0.0295683033764362335 -0.0200842563062906265
-0.00727729545906186104 -0.0130349751561880112 -0.0165807735174894333
0.019521128386259079 -0.034329686313867569 -0.014387061819434166
-0.190314233303070068 0.19971802830696106 -0.013720986433327198
-0.222506359219551086 0.19266393780708313 -0.0130404755473136902
-0.217150375247001648 0.19266393780708313 -0.0132787646725773811
-0.179730907082557678 0.164406567811965942 -0.0164663568139076233
-0.174395620822906494 0.150255665183067322 -0.0174263846129179001
-0.169045567512512207 0.136091753840446472 -0.0182886384427547455
-0.163682401180267334 0.121916212141513824 -0.0190530568361282349
-0.158298969268798828 0.114824496209621429 -0.0194366518408060074
-0.152903750538825989 0.114824496209621429 -0.0195020232349634171
-0.147508189082145691 0.114824496209621429 -0.0195528324693441391
-0.109694980084896088 0.058018900454044342 -0.0211784318089485168
-0.104285769164562225 0.050911780446767807 -0.0212282333523035049
-0.0988763570785522461 0.0438038036227226257 -0.0212425440549850464
-0.09346722811460495 0.0366951413452625275 -0.0212212372571229935
-0.0880614668130874634 0.0366951413452625275 -0.0211120527237653732
-0.00174015678931027651 -0.013070298358798027 -0.0173150580376386642
0.02507772296667099 -0.0343914888799190521 -0.015046391636133194
0.0304441098123788834 -0.0343914888799190521 -0.01461810152977705
0.0358077883720397949 -0.0343914888799190521 -0.0141754383221268654
-0.190349578857421875 0.207005411386489868 -0.014237784780561924
-0.185085952281951904 0.185817033052444458 -0.0159899666905403137
-0.179765850305557251 0.171670630574226379 -0.0170905105769634247
-0.174428805708885193 0.157509177923202515 -0.0180934052914381027
-0.169076457619667053 0.143333986401557922 -0.0189985260367393494
-0.163710474967956543 0.129146501421928406 -0.0198056846857070923
-0.158323019742965698 0.122048549354076385 -0.0202106498181819916
-0.15292300283908844 0.122048549354076385 -0.0202760230749845505
-0.142125755548477173 0.114948026835918427 -0.0206674337387084961
-0.0934234112501144409 0.0438391231000423431 -0.0222281031310558319
-0.0880113914608955383 0.0438391231000423431 -0.022118791937828064
-0.00695828674361109734 -0.00598812615498900414 -0.0188056882470846176
-0.0123604126274585724 -0.0131056178361177444 -0.0190600529313087463
0.0306157488375902176 -0.0415670126676559448 -0.0155340023338794708
0.0359851159155368805 -0.0415670126676559448 -0.0150908352807164192
-0.0610190816223621368 -0.0486793629825115204 -0.0206725411117076874
-0.185120731592178345 0.193104386329650879 -0.0165491271764039993
-0.179799541831016541 0.178948476910591125 -0.0176926646381616592
-0.174460887908935547 0.164776816964149475 -0.0187385529279708862
-0.169106408953666687 0.150590762495994568 -0.0196865405887365341
-0.16373772919178009 0.13639165461063385 -0.0205365009605884552
-0.158346399664878845 0.129287645220756531 -0.0209629014134407043
-0.152941703796386719 0.129287645220756531 -0.0210283976048231125
-0.147542715072631836 0.122180894017219543 -0.021404806524515152
-0.142135366797447205 0.122180894017219543 -0.0214411802589893341
-0.00679650111123919487 0.00111222080886363983 -0.019933970645070076
-0.00140729465056210756 -0.00601461762562394142 -0.0195392165333032608
0.00396115006878972054 -0.0202665738761425018 -0.0190149173140525818
0.0093117058277130127 -0.0345150977373123169 -0.0183927174657583237
0.0200565215200185776 -0.0416376441717147827 -0.0174498986452817917
-0.0555230900645256042 -0.0487588159739971161 -0.0215540844947099686
0.030783412978053093 -0.0487588159739971161 -0.0164285954087972641
-0.190456598997116089 0.214552164077758789 -0.015801919624209404
-0.169135391712188721 0.157861828804016113 -0.0203526783734560013
-0.16376417875289917 0.143651485443115234 -0.0212455689907073975
-0.158369109034538269 0.136541604995727539 -0.0216934029012918472
-0.152959883213043213 0.136541604995727539 -0.0217589624226093292
-0.147556737065315247 0.12942880392074585 -0.0221567433327436447
-0.136734530329704285 0.122313231229782104 -0.0225409679114818573
-0.115046031773090363 0.0724417790770530701 -0.0241757705807685852
-0.109617799520492554 0.0653104037046432495 -0.024282434955239296
-0.104188628494739532 0.0581778362393379211 -0.0243534799665212631
-0.0933335050940513611 0.0510442294180393219 -0.0242939069867134094
-0.0879086479544639587 0.0510442294180393219 -0.0241842810064554214
0.00414345785975456238 -0.0131762605160474777 -0.020184047520160675
0.0255999583750963211 -0.0488382615149021149 -0.0179300066083669662
0.036365848034620285 -0.0488382615149021149 -0.0170561540871858597
-0.18522074818611145 0.2006339430809021 -0.0181573275476694107
-0.179892048239707947 0.186451390385627747 -0.0193454325199127197
-0.174545302987098694 0.172252342104911804 -0.0204357020556926727
-0.169163420796394348 0.165147051215171814 -0.0209968164563179016
-0.163774505257606506 0.158038169145584106 -0.0215225014835596085
-0.158379033207893372 0.150925830006599426 -0.0220128223299980164
-0.152977496385574341 0.143810242414474487 -0.0224676523357629776
-0.147570356726646423 0.136691555380821228 -0.0228869281709194183
-0.142158105969429016 0.129569947719573975 -0.0232707131654024124
-0.115029230713844299 0.0796512216329574585 -0.0250766687095165253
-0.109594874083995819 0.072512403130531311 -0.0252045765519142151
-0.00648341933265328407 0.00822173897176980972 -0.0221175309270620346
-0.00107752159237861633 0.00107689772266894579 -0.0217426996678113937
0.00432253303006291389 -0.00606760056689381599 -0.021332375705242157
0.0204005427658557892 -0.0489177145063877106 -0.0194179285317659378
0.0257581509649753571 -0.0560549832880496979 -0.018803546205163002
0.0311478842049837112 -0.0560549832880496979 -0.018373364582657814
0.0365349017083644867 -0.0560549832880496979 -0.0179287474602460861
-0.174575179815292358 0.179556518793106079 -0.021036151796579361
-0.169190496206283569 0.17244623601436615 -0.021618889644742012
-0.163798525929450989 0.165332168340682983 -0.0221661981195211411
-0.158399716019630432 0.158214494585990906 -0.0226780790835618973
-0.15299457311630249 0.151093378663063049 -0.023154405876994133
-0.147583574056625366 0.143968984484672546 -0.0235952399671077728
-0.142167180776596069 0.136841505765914917 -0.0240004584193229675
-0.13674589991569519 0.1297110915184021 -0.0243701227009296417
-0.11501283198595047 0.0868767648935317993 -0.0259560700505971909
-0.109572477638721466 0.0797306746244430542 -0.0261051580309867859
-0.0986827388405799866 0.0582837872207164764 -0.0264332778751850128
-0.000911844836082309484 0.00821290817111730576 -0.0228497982025146484
0.00449835136532783508 0.00105923612136393785 -0.022459961473941803
-0.055225759744644165 -0.0418495237827301025 -0.024967169389128685
0.0313075035810470581 -0.0632876232266426086 -0.0192250907421112061
0.0366998091340065002 -0.0632876232266426086 -0.0187799688428640366
-0.179983228445053101 0.193985253572463989 -0.0209747515618801117
-0.174603953957557678 0.186874285340309143 -0.0216145403683185577
-0.169216617941856384 0.179759189486503601 -0.0222188998013734818
-0.163821712136268616 0.172640129923820496 -0.0227878298610448837
-0.158419713377952576 0.165517285466194153 -0.0233212709426879883
-0.153011098504066467 0.158390834927558899 -0.0238191559910774231
-0.147596374154090881 0.151260912418365479 -0.0242815520614385605
-0.0986381098628044128 0.0511766783893108368 -0.0276294536888599396
0.00467092450708150864 0.00820407737046480179 -0.023566683754324913
0.0100648850202560425 -0.013282223604619503 -0.0230357013642787933
-0.0496964044868946075 -0.0419201590120792389 -0.0258330162614583969
0.0207407325506210327 -0.0562315322458744049 -0.0213640835136175156
0.0260629002004861832 -0.070536002516746521 -0.0204861965030431747
0.0368605554103851318 -0.070536002516746521 -0.0196097586303949356
-0.185385867953300476 0.208431810140609741 -0.0208124257624149323
-0.180013135075569153 0.201320886611938477 -0.0215092003345489502
-0.169241756200790405 0.187085732817649841 -0.0227967184036970139
-0.163844063878059387 0.179961875081062317 -0.0233872737735509872
-0.158439010381698608 0.172834038734436035 -0.0239423364400863647
-0.153027087450027466 0.165702417492866516 -0.0244619082659482956
-0.147608757019042969 0.158567160367965698 -0.0249458625912666321
-0.142189368605613708 0.144286483526229858 -0.0257849171757698059
-0.136757135391235352 0.137141406536102295 -0.0261765811592340469
-0.131320208311080933 0.129993394017219543 -0.0265325028449296951
-0.114976711571216583 0.0942153111100196838 -0.0278930831700563431
-0.0931505337357521057 0.0583897456526756287 -0.0284980107098817825
-0.00058830995112657547 0.015366753563284874 -0.0250116121023893356
0.00484022917225956917 0.015366753563284874 -0.024652412161231041
-0.0441550128161907196 -0.0419907830655574799 -0.0266836713999509811
0.0370171330869197845 -0.0777999386191368103 -0.0204179864376783371
-0.17468494176864624 0.194425687193870544 -0.0232427865266799927
-0.163865596055984497 0.18729718029499054 -0.0239645261317491531
-0.158457636833190918 0.180164545774459839 -0.0245412737131118774
-0.153042510151863098 0.173027947545051575 -0.0250824689865112305
-0.147620737552642822 0.165887534618377686 -0.0255881082266569138
-0.142197892069816589 0.151596009731292725 -0.0264703463762998581
-0.136761531233787537 0.144445240497589111 -0.0268835071474313736
-0.131320208311080933 0.137291356921195984 -0.0272609870880842209
-0.120414003729820251 0.101481325924396515 -0.0287656132131814957
-0.114961124956607819 0.101481325924396515 -0.0287288613617420197
-0.09310951828956604 0.0656194239854812622 -0.0294403880834579468
-0.049480341374874115 -0.0348859205842018127 -0.0281475111842155457
-0.185482889413833618 0.216031074523925781 -0.0223725270479917526
-0.180101722478866577 0.208907291293144226 -0.0230919960886240005
-0.174711465835571289 0.201778843998908997 -0.0237760376185178757
-0.169312611222267151 0.194645896553993225 -0.0244245883077383041
-0.158475562930107117 0.187508627772331238 -0.025118023157119751
-0.153057396411895752 0.180367231369018555 -0.0256809014827013016
-0.147632300853729248 0.17322184145450592 -0.026208164170384407
-0.142206132411956787 0.158919826149940491 -0.0271336473524570465
-0.120403878390789032 0.108762897551059723 -0.0295797064900398254
0.0106083480641245842 0.00098858994897454977 -0.026385873556137085
0.0159654412418603897 -0.0349477231502532959 -0.0255223587155342102
-0.169335782527923584 0.20200781524181366 -0.0249571464955806732
-0.163926303386688232 0.194866105914115906 -0.0255919527262449265
-0.15307171642780304 0.187720075249671936 -0.0262570194900035858
-0.147643446922302246 0.180569902062416077 -0.0268060304224491119
-0.142214104533195496 0.166257768869400024 -0.0277748219668865204
-0.136772468686103821 0.151931092143058777 -0.0286445785313844681
-0.131320208311080933 0.144762739539146423 -0.0290441215038299561
-0.120394028723239899 0.116059839725494385 -0.0303719229996204376
0.00534156989306211472 0.0225647520273923874 -0.0278674904257059097
-0.0383736230432987213 -0.0422026701271533966 -0.0296739488840103149
-0.0274808816611766815 -0.0493944287300109863 -0.0289643146097660065
-0.174790143966674805 0.209382757544517517 -0.0253576356917619705
-0.163946151733398438 0.202236801385879517 -0.0261239428073167801
-0.158526122570037842 0.19508633017539978 -0.0267449449747800827
-0.153085485100746155 0.19508633017539978 -0.026810821145772934
-0.120384454727172852 0.123371973633766174 -0.0311423279345035553
-0.0874846950173377991 0.0586016513407230377 -0.0327071584761142731
0.0109484540298581123 -0.00625304132699966431 -0.028482440859079361
-0.0437098480761051178 -0.0350713282823562622 -0.0311536118388175964
0.0375300385057926178 -0.114187978208065033 -0.0230656452476978302
-0.180248856544494629 0.216770529747009277 -0.0257209315896034241
-0.174814403057098389 0.216770529747009277 -0.0258453097194433212
-0.169404596090316772 0.209620490670204163 -0.0265383031219244003
0.0110953208059072495 -0.0207080729305744171 -0.0293878130614757538
-0.0381287112832069397 -0.0351331345736980438 -0.0319880023598670959
-0.0326743349432945251 -0.042343921959400177 -0.0315706171095371246
-0.0272047482430934906 -0.042343921959400177 -0.0312977209687232971
0.0164814740419387817 -0.042343921959400177 -0.0285846907645463943
-0.0217593759298324585 -0.0495533272624015808 -0.0308298412710428238
-0.0162944961339235306 -0.0495533272624015808 -0.0305275041610002518
0.0218267980962991714 -0.0639672651886940002 -0.0275771934539079666
0.011250711977481842 -0.0279740989208221436 -0.0303457621484994888
-0.032535746693611145 -0.035194937139749527 -0.0328070744872093201
0.0166320409625768661 -0.0496327802538871765 -0.0294782128185033798
-0.0378859750926494598 -0.0280270799994468689 -0.0342815704643726349
-0.0269310474395751953 -0.0352567397058010101 -0.0336107015609741211
-0.0214686952531337738 -0.0424851812422275543 -0.0331628695130348206
-0.0105366148054599762 -0.0497122332453727722 -0.0323613844811916351
0.0167789552360773087 -0.0569377131760120392 -0.0303501114249229431
0.0221590735018253326 -0.0713832676410675049 -0.0294780228286981583
-0.0322787351906299591 -0.0280800554901361465 -0.0351000726222991943
-0.026787223294377327 -0.0280800554901361465 -0.0348261035978794098
-0.0213146936148405075 -0.0353185459971427917 -0.0343989469110965729
