ply
format ascii 1.0
element vertex 733
property float x
property float y
property float z
end_header
0.000122366516734473407 -0.173928886651992798 0.136502429842948914
0.0035051531158387661 -0.173928886651992798 0.136411234736442566
0.00688833603635430336 -0.173928886651992798 0.136332184076309204
0.010271858423948288 -0.173928886651992798 0.136265337467193604
0.013655664399266243 -0.173928886651992798 0.136210575699806213
0.0170396976172924042 -0.173928886651992798 0.13616807758808136
0.0204238984733819962 -0.173928886651992798 0.136137649416923523
0.0238082148134708405 -0.173928886651992798 0.136119380593299866
0.0271925870329141617 -0.173928886651992798 0.136113300919532776
0.0305769592523574829 -0.173928886651992798 0.136119380593299866
0.0407811105251312256 -0.15066508948802948 0.133440971374511719
0.044177815318107605 -0.15066508948802948 0.133495882153511047
0.0475742369890213013 -0.15066508948802948 0.133562996983528137
0.0305862464010715485 -0.162419781088829041 0.134125396609306335
0.0339798480272293091 -0.162419781088829041 0.134143680334091187
-0.0540784411132335663 -0.16829228401184082 0.13804037868976593
-0.0134919332340359688 -0.16829228401184082 0.135410875082015991
-0.0101039502769708633 -0.16829228401184082 0.135270774364471436
0.0136262364685535431 -0.16829228401184082 0.134631142020225525
0.0170176252722740173 -0.16829228401184082 0.134588450193405151
0.0204091854393482208 -0.16829228401184082 0.134558022022247314
0.0238008573651313782 -0.16829228401184082 0.134539753198623657
0.0271925870329141617 -0.16829228401184082 0.134533673524856567
-0.0809691846370697021 -0.174161374568939209 0.141192138195037842
0.0305952169001102448 -0.150860533118247986 0.132199063897132874
0.0271925870329141617 -0.1567486971616745 0.132572740316390991
0.0339942537248134613 -0.1567486971616745 0.132597237825393677
0.0373949445784091949 -0.1567486971616745 0.132627785205841064
0.0407954640686511993 -0.1567486971616745 0.132670551538467407
0.0441957563161849976 -0.1567486971616745 0.132725521922111511
0.0475957654416561127 -0.1567486971616745 0.13279271125793457
0.0169957820326089859 -0.162633746862411499 0.133025139570236206
0.020394621416926384 -0.162633746862411499 0.132994577288627625
0.0237935762852430344 -0.162633746862411499 0.132976308465003967
-0.0643424168229103088 -0.168515518307685852 0.137829452753067017
-0.00676881568506360054 -0.168515518307685852 0.133995354175567627
-0.00337429600767791271 -0.168515518307685852 0.133879408240318298
2.0734800273203291e-05 -0.168515518307685852 0.133775666356086731
0.00341622158885002136 -0.168515518307685852 0.133684128522872925
0.00681210681796073914 -0.168515518307685852 0.133604809641838074
0.0102083329111337662 -0.168515518307685852 0.133537694811820984
0.0306082013994455338 -0.121526643633842468 0.129411399364471436
0.0271925870329141617 -0.133346214890480042 0.130007192492485046
0.0237845983356237411 -0.151055976748466492 0.131048694252967834
0.0340085066854953766 -0.151055976748466492 0.13106711208820343
0.0169741660356521606 -0.156953424215316772 0.131478086113929749
0.0203802101314067841 -0.156953424215316772 0.131447464227676392
-0.0204425789415836334 -0.162847727537155151 0.133019402623176575
-0.0170433968305587769 -0.162847727537155151 0.132854357361793518
-3.75314302800688893e-05 -0.162847727537155151 0.132212430238723755
0.00336523656733334064 -0.162847727537155151 0.132120698690414429
0.00676840264350175858 -0.162847727537155151 0.132041171193122864
0.0101719126105308533 -0.162847727537155151 0.131973922252655029
0.0135757047683000565 -0.162847727537155151 0.131918877363204956
0.0374054498970508575 -0.162847727537155151 0.131876051425933838
0.0408094674348831177 -0.162847727537155151 0.131918877363204956
0.0442132614552974701 -0.162847727537155151 0.131973922252655029
0.0476167723536491394 -0.162847727537155151 0.132041171193122864
-0.078000485897064209 -0.168738752603530884 0.138102635741233826
-0.0611040852963924408 -0.168738752603530884 0.13636462390422821
-0.057720135897397995 -0.168738752603530884 0.136053472757339478
0.0306160487234592438 -0.109828352928161621 0.127726346254348755
0.0237759388983249664 -0.13942912220954895 0.129189357161521912
0.0203625690191984177 -0.145341694355010986 0.129553452134132385
0.0169527772814035416 -0.151251420378684998 0.129947423934936523
-0.030757557600736618 -0.157158136367797852 0.132043734192848206
0.0101358713582158089 -0.157158136367797852 0.130426466464996338
0.0135468719527125359 -0.157158136367797852 0.13037128746509552
0.0510703884065151215 -0.157158136367797852 0.130573511123657227
-0.0748425871133804321 -0.163061708211898804 0.136177793145179749
-0.051115427166223526 -0.163061708211898804 0.133909821510314941
-0.0137076759710907936 -0.163061708211898804 0.131553769111633301
-0.0103017259389162064 -0.163061708211898804 0.131412938237190247
-0.00689514679834246635 -0.163061708211898804 0.131284371018409729
-0.0034879990853369236 -0.163061708211898804 0.131168022751808167
0.0408231206238269806 -0.168962001800537109 0.131186157464981079
0.0442303270101547241 -0.168962001800537109 0.131241202354431152
0.0271925870329141617 -0.115892805159091949 0.126823991537094116
0.0237675979733467102 -0.127754271030426025 0.127398595213890076
0.020345563068985939 -0.133681416511535645 0.127727821469306946
0.0169316213577985764 -0.145527854561805725 0.128433287143707275
0.010100213810801506 -0.15144684910774231 0.128895401954650879
0.0135183446109294891 -0.15144684910774231 0.128840163350105286
-0.0410699173808097839 -0.157362833619117737 0.131577447056770325
-0.027439359575510025 -0.157362833619117737 0.13069431483745575
-0.0240292958915233612 -0.157362833619117737 0.13050416111946106
-0.00696724327281117439 -0.157362833619117737 0.129737257957458496
-0.00355288898572325706 -0.157362833619117737 0.12962062656879425
-0.00013802081230096519 -0.157362833619117737 0.129516288638114929
0.00327730551362037659 -0.157362833619117737 0.129424214363098145
0.00669303024187684059 -0.157362833619117737 0.12934441864490509
-0.0648271217942237854 -0.163275673985481262 0.133990556001663208
-0.0614320896565914154 -0.163275673985481262 0.133666053414344788
0.047669336199760437 -0.169185236096382141 0.130160436034202576
0.0237608645111322403 -0.121973693370819092 0.125952586531639099
0.0203319322317838669 -0.127912566065788269 0.126264616847038269
0.0169060993939638138 -0.133849024772644043 0.126606658101081848
0.0100649408996105194 -0.145714014768600464 0.127380862832069397
0.0134901264682412148 -0.145714014768600464 0.127325490117073059
0.0066502266563475132 -0.151642292737960815 0.127812951803207397
-0.065021514892578125 -0.157567545771598816 0.132450997829437256
-0.0616193152964115143 -0.157567545771598816 0.132125750184059143
-0.0206932965666055679 -0.157567545771598816 0.129178360104560852
-0.0172762256115674973 -0.157567545771598816 0.129012495279312134
-0.0138584114611148834 -0.157567545771598816 0.128858834505081177
-0.0104399072006344795 -0.157567545771598816 0.128717467188835144
-0.0717673376202583313 -0.163489669561386108 0.133535131812095642
-0.058169148862361908 -0.163489669561386108 0.132210597395896912
-0.0547658875584602356 -0.163489669561386108 0.131910040974617004
-0.0751046910881996155 -0.169408470392227173 0.13431122899055481
-0.0784339234232902527 -0.175323843955993652 0.135116651654243469
0.0408577993512153625 -0.175323843955993652 0.129324719309806824
0.044273674488067627 -0.175323843955993652 0.129379972815513611
0.0237542074173688889 -0.116172239184379578 0.124523445963859558
0.0203184597194194794 -0.122122712433338165 0.124818205833435059
0.0168856475502252579 -0.1280708909034729 0.125143051147460938
0.0134560763835906982 -0.134016618132591248 0.125497967004776001
0.0100300544872879982 -0.139959752559661865 0.125882983207702637
0.00660788314417004585 -0.145900174975395203 0.126298010349273682
-0.0652138367295265198 -0.151837736368179321 0.130927756428718567
-0.061804547905921936 -0.151837736368179321 0.130601897835731506
-0.010518394410610199 -0.151837736368179321 0.12718646228313446
-0.00709213223308324814 -0.151837736368179321 0.127057164907455444
-0.00366529589518904686 -0.151837736368179321 0.126940131187438965
-0.000237941436353139579 -0.151837736368179321 0.12683539092540741
0.00318986899219453335 -0.151837736368179321 0.126742973923683167
-0.0685717836022377014 -0.157772257924079895 0.13164617121219635
-0.0718658268451690674 -0.169631704688072205 0.132809370756149292
0.0203051436692476273 -0.11631195992231369 0.123388655483722687
0.0168654303997755051 -0.122271731495857239 0.123696230351924896
-0.0655283406376838684 -0.128229200839996338 0.128436863422393799
0.0134287998080253601 -0.128229200839996338 0.124033883213996887
0.00999555643647909164 -0.134184211492538452 0.124401763081550598
-0.0620298050343990326 -0.140136644244194031 0.128748565912246704
0.00656600575894117355 -0.140136644244194031 0.124799653887748718
0.00314045348204672337 -0.146086350083351135 0.125227630138397217
-0.0311517249792814255 -0.152033165097236633 0.127073287963867188
-0.0277247615158557892 -0.152033165097236633 0.126869857311248779
-0.0242968760430812836 -0.152033165097236633 0.126678690314292908
-0.0208681374788284302 -0.152033165097236633 0.12649981677532196
-0.0174385868012905121 -0.152033165097236633 0.126333355903625488
-0.0140082919970154762 -0.152033165097236633 0.126179158687591553
-0.0584829002618789673 -0.15797695517539978 0.129525318741798401
-0.0686691850423812866 -0.163917601108551025 0.130902469158172607
-0.0753639638423919678 -0.175788834691047668 0.132464900612831116
-0.0719617456197738647 -0.175788834691047668 0.132102549076080322
-0.0786990523338317871 -0.181719139218330383 0.133290216326713562
0.0443165488541126251 -0.181719139218330383 0.127539098262786865
0.0168454516679048538 -0.116451680660247803 0.122266337275505066
0.0134018370881676674 -0.122420743107795715 0.122586727142333984
-0.0622467361390590668 -0.128387495875358582 0.126963943243026733
0.00996144954115152359 -0.128387495875358582 0.122937336564064026
0.00652459636330604553 -0.134351804852485657 0.123318098485469818
0.0030915804672986269 -0.140313521027565002 0.123728938400745392
-0.0106549784541130066 -0.14627249538898468 0.12452223151922226
-0.0072163059376180172 -0.14627249538898468 0.12439245730638504
-0.00377705739811062813 -0.14627249538898468 0.124275021255016327
-0.00033729089773260057 -0.14627249538898468 0.124169930815696716
-0.0586611703038215637 -0.152228608727455139 0.12799951434135437
-0.0346740595996379852 -0.152228608727455139 0.126141861081123352
-0.055195443332195282 -0.158181682229042053 0.128079384565353394
-0.0449240989983081818 -0.158181682229042053 0.127246707677841187
-0.0754605159163475037 -0.18196086585521698 0.131777361035346985
-0.0686480030417442322 -0.18196086585521698 0.13106420636177063
0.0168257094919681549 -0.110610872507095337 0.120853379368782043
0.0133751910179853439 -0.116591401398181915 0.121156439185142517
0.00992773566395044327 -0.122569762170314789 0.121489778161048889
0.00648365449160337448 -0.128545805811882019 0.121853269636631012
0.00304325204342603683 -0.134519413113594055 0.122246980667114258
-0.000393164460547268391 -0.140490412712097168 0.122670844197273254
-0.0588375106453895569 -0.146458670496940613 0.126490369439125061
-0.0244831107556819916 -0.146458670496940613 0.124016210436820984
-0.0210419688373804092 -0.146458670496940613 0.123836725950241089
-0.0176000148057937622 -0.146458670496940613 0.123669654130935669
-0.0141573138535022736 -0.146458670496940613 0.123514853417873383
-0.0382060445845127106 -0.152424037456512451 0.12522338330745697
-0.0518959425389766693 -0.158386394381523132 0.126644834876060486
-0.048466809093952179 -0.158386394381523132 0.126366868615150452
-0.0687356442213058472 -0.188147664070129395 0.130395099520683289
0.0133488606661558151 -0.110741294920444489 0.119743272662162781
0.00989441853016614914 -0.116731122136116028 0.120059214532375336
0.00644318806007504463 -0.122718781232833862 0.120405443012714386
0.00299547542817890644 -0.128704115748405457 0.120781883597373962
-0.0624874010682106018 -0.13468700647354126 0.124983929097652435
-0.000448411650722846389 -0.13468700647354126 0.121188610792160034
-0.0107907624915242195 -0.14066728949546814 0.121873639523983002
-0.00733975227922201157 -0.14066728949546814 0.121743328869342804
-0.0038881662767380476 -0.14066728949546814 0.121625490486621857
-0.0314537994563579559 -0.146644830703735352 0.123264141380786896
-0.028009096160531044 -0.146644830703735352 0.123059630393981934
-0.0554950423538684845 -0.152619481086730957 0.125407591462135315
-0.0417476184666156769 -0.152619481086730957 0.124317988753318787
0.0513058863580226898 -0.170524656772613525 0.123352028429508209
0.0478496216237545013 -0.176486313343048096 0.123710125684738159
0.00640319427475333214 -0.116870835423469543 0.118974536657333374
0.00294825108721852303 -0.122867792844772339 0.119333714246749878
-0.000503030081745237112 -0.128862425684928894 0.119723178446292877
-0.00395033694803714752 -0.134854599833488464 0.120142854750156403
-0.0212147831916809082 -0.140844166278839111 0.121189214289188385
-0.0177604984492063522 -0.140844166278839111 0.121021464467048645
-0.0143054621294140816 -0.140844166278839111 0.120866194367408752
-0.0349939204752445221 -0.146831005811691284 0.122333183884620667
-0.0723883658647537231 -0.194609284400939941 0.128958731889724731
0.00290157855488359928 -0.117010563611984253 0.117902547121047974
-0.000557017396204173565 -0.123016811907291412 0.118274740874767303
-0.00401180237531661987 -0.129020735621452332 0.118677213788032532
-0.0109257372096180916 -0.135022208094596863 0.119240701198577881
-0.00746246660128235817 -0.135022208094596863 0.119109980762004852
-0.0592795759439468384 -0.141021057963371277 0.122706860303878784
-0.028206605464220047 -0.141021057963371277 0.120412856340408325
-0.0247486494481563568 -0.141021057963371277 0.120220020413398743
-0.0557929240167140961 -0.147017151117324829 0.122751243412494659
-0.0385436937212944031 -0.147017151117324829 0.121415376663208008
-0.0523062087595462799 -0.153010353446006775 0.122826114296913147
-0.0488592870533466339 -0.153010353446006775 0.122546665370464325
-0.0454110950231552124 -0.153010353446006775 0.122279629111289978
-0.0759648904204368591 -0.194869503378868103 0.128185614943504333
0.00633144332095980644 -0.111132554709911346 0.116407297551631927
0.0098077673465013504 -0.111132554709911346 0.116338633000850677
-0.00753077864646911621 -0.129179045557975769 0.11764400452375412
-0.0213865693658590317 -0.135189801454544067 0.11855742335319519
-0.0179200265556573868 -0.135189801454544067 0.118389137089252472
-0.0144527321681380272 -0.135189801454544067 0.118233256042003632
-0.0317547321319580078 -0.141197934746742249 0.119469426572322845
-0.0421030595898628235 -0.147203326225280762 0.120510660111904144
0.0514319799840450287 -0.165201470255851746 0.119485341012477875
-0.0727637112140655518 -0.189151614904403687 0.126192718744277954
0.00281785707920789719 -0.111262977123260498 0.115335233509540558
-0.00065333337988704443 -0.117290005087852478 0.115690566599369049
-0.00412086863070726395 -0.123314842581748962 0.116076312959194183
-0.0145347211509943008 -0.129337355494499207 0.116767346858978271
-0.011059899814426899 -0.129337355494499207 0.116623677313327789
-0.028402937576174736 -0.135357394814491272 0.117781877517700195
-0.0249327234923839569 -0.135357394814491272 0.117588356137275696
-0.0560890473425388336 -0.141374826431274414 0.120110541582107544
-0.0353125706315040588 -0.141374826431274414 0.118539080023765564
-0.0525918304920196533 -0.1473894864320755 0.120167605578899384
-0.0491325259208679199 -0.1473894864320755 0.119887150824069977
-0.0456719435751438141 -0.1473894864320755 0.119619168341159821
-0.0763532146811485291 -0.189402595162391663 0.125420272350311279
0.00277229561470448971 -0.105355039238929749 0.113937988877296448
-0.000706060731317847967 -0.11139339953660965 0.114275917410850525
-0.00418092310428619385 -0.117429718375205994 0.114644266664981842
-0.0111341895535588264 -0.123463861644268036 0.115174569189548492
-0.00765197910368442535 -0.123463861644268036 0.115043103694915771
-0.021557314321398735 -0.129495665431022644 0.115941613912582397
-0.0180785916745662689 -0.129495665431022644 0.115772716701030731
-0.0319633558392524719 -0.135524988174438477 0.116838641464710236
-0.0527526065707206726 -0.141551703214645386 0.118671149015426636
-0.0388800613582134247 -0.141551703214645386 0.117621883749961853
0.0549792051315307617 -0.16562943160533905 0.117281593382358551
-0.00424025487154722214 -0.111523821949958801 0.113229423761367798
-0.00771872140467166901 -0.117569446563720703 0.113610856235027313
-0.0146801713854074478 -0.123612880706787109 0.114166989922523499
-0.0251156892627477646 -0.129653975367546082 0.114972688257694244
-0.0529115684330463409 -0.135692596435546875 0.11719154566526413
-0.0355334877967834473 -0.135692596435546875 0.115908563137054443
-0.0494041517376899719 -0.141728579998016357 0.117243282496929169
-0.045931253582239151 -0.141728579998016357 0.116974353790283203
-0.0424571335315704346 -0.141728579998016357 0.116717837750911713
0.0550061874091625214 -0.171864092350006104 0.116557642817497253
0.0306611470878124237 -0.195910409092903137 0.118043042719364166
-0.000801140849944204092 -0.105597272515296936 0.111724935472011566
-0.00778466230258345604 -0.111654236912727356 0.112195804715156555
-0.0112666711211204529 -0.117709167301654816 0.112590327858924866
-0.0217270087450742722 -0.123761892318725586 0.113341860473155975
-0.0182361751794815063 -0.123761892318725586 0.113172359764575958
-0.0321707166731357574 -0.129812285304069519 0.114223912358283997
-0.0286838989704847336 -0.129812285304069519 0.114016838371753693
-0.0495562739670276642 -0.13586018979549408 0.115762665867805481
-0.0391132719814777374 -0.13586018979549408 0.114991709589958191
0.117462024092674255 -0.184136554598808289 0.120134554803371429
0.120920047163963318 -0.184136554598808289 0.12046506255865097
0.0306687988340854645 -0.190155565738677979 0.116400010883808136
-0.0113392220810055733 -0.111784659326076508 0.111175142228603363
-0.0148247107863426208 -0.117848880589008331 0.111582815647125244
-0.0252975225448608398 -0.123910911381244659 0.112373135983943939
-0.0497066490352153778 -0.129970595240592957 0.114298984408378601
-0.0357530638575553894 -0.129970595240592957 0.113294109702110291
-0.0461890101432800293 -0.136027783155441284 0.11434539407491684
-0.0427026450634002686 -0.136027783155441284 0.114087998867034912
-0.00790353212505578995 -0.10583951324224472 0.109644882380962372
-0.00439559528604149818 -0.10583951324224472 0.109525091946125031
-0.0149038722738623619 -0.111915081739425659 0.110167495906352997
-0.0218956414610147476 -0.117988601326942444 0.110758431255817413
-0.0183927752077579498 -0.117988601326942444 0.110588319599628448
-0.0323767922818660736 -0.124059930443763733 0.111625239253044128
-0.0288778748363256454 -0.124059930443763733 0.111417494714260101
-0.0463326163589954376 -0.130128905177116394 0.11288076639175415
-0.0428394265472888947 -0.130128905177116394 0.112622834742069244
-0.0393450669944286346 -0.130128905177116394 0.11237751692533493
0.0341616608202457428 -0.196691080927848816 0.114625111222267151
-0.0114699928089976311 -0.105960629880428314 0.108624286949634552
-0.0184785518795251846 -0.112045504152774811 0.109172865748405457
-0.025478217750787735 -0.118128329515457153 0.109789833426475525
-0.0359712801873683929 -0.124208942055702209 0.110695764422416687
-0.00802162755280733109 -0.099985659122467041 0.107110626995563507
-0.0150465443730354309 -0.106081753969192505 0.10761677473783493
-0.0220632012933492661 -0.112175926566123962 0.108191385865211487
-0.0325815752148628235 -0.118268042802810669 0.109042957425117493
-0.0290706269443035126 -0.118268042802810669 0.108834534883499146
-0.0465871654450893402 -0.124357961118221283 0.110284522175788879
-0.0430818796157836914 -0.124357961118221283 0.110025711357593536
-0.0395754240453243256 -0.124357961118221283 0.109779514372348785
-0.0115999039262533188 -0.100097469985485077 0.106090165674686432
-0.0186331272125244141 -0.106202863156795502 0.106622278690338135
-0.0291762351989746094 -0.112306341528892517 0.107419282197952271
-0.0256577562540769577 -0.112306341528892517 0.107223063707351685
-0.0361881256103515625 -0.118407763540744781 0.108113750815391541
0.0376940704882144928 -0.197471767663955688 0.1112198606133461
-0.0151882749050855637 -0.100209280848503113 0.105082787573337555
-0.0257555544376373291 -0.106323979794979095 0.105824947357177734
-0.0222296733409166336 -0.106323979794979095 0.105641007423400879
-0.0327850505709648132 -0.112436763942241669 0.106477126479148865
-0.0433228090405464172 -0.118547484278678894 0.107444979250431061
-0.0398043282330036163 -0.118547484278678894 0.107197903096675873
0.114856570959091187 -0.17950873076915741 0.112506553530693054
-0.0152645474299788475 -0.0941953137516975403 0.103719130158424377
-0.022319817915558815 -0.100321099162101746 0.104260019958019257
-0.0187866799533367157 -0.100321099162101746 0.104088492691516876
-0.029366491362452507 -0.106445103883743286 0.104869842529296875
-0.0434548445045948029 -0.11256718635559082 0.106030672788619995
-0.0399297736585140228 -0.11256718635559082 0.105783127248287201
-0.0364035852253437042 -0.11256718635559082 0.105548329651355743
-0.025932731106877327 -0.100432910025119781 0.103291966021060944
-0.0365209728479385376 -0.10656622052192688 0.104150548577308655
-0.0329872071743011475 -0.10656622052192688 0.103928029537200928
0.0412583164870738983 -0.198252439498901367 0.107827559113502502
0.0447743050754070282 -0.198252439498901367 0.107884421944618225
0.0482900030910968781 -0.198252439498901367 0.107953891158103943
-0.0189392101019620895 -0.0944003239274024963 0.101571634411811829
-0.0295554846525192261 -0.100544720888137817 0.102337203919887543
-0.0401557013392448425 -0.106687337160110474 0.10323517769575119
-0.0261087175458669662 -0.0945028364658355713 0.100775986909866333
-0.0225593242794275284 -0.0945028364658355713 0.100590832531452179
-0.0367335788905620575 -0.100656531751155853 0.101619057357311249
-0.0331880226731300354 -0.100656531751155853 0.101395726203918457
0.0448394156992435455 -0.192665442824363708 0.105088718235492706
-0.0262835100293159485 -0.0885338857769966125 0.0982771366834640503
-0.0369447618722915649 -0.0947078391909599304 0.0991044864058494568
0.151046693325042725 -0.162480577826499939 0.108180053532123566
0.0519712306559085846 -0.193167418241500854 0.1029491126537323
-0.0334788486361503601 -0.0948103442788124084 0.0977284237742424011
0.179474815726280212 -0.150368094444274902 0.110247425734996796
0.144126161932945251 -0.168839052319526672 0.106587745249271393
0.0484642237424850464 -0.193418398499488831 0.101720429956912994
-0.0335855968296527863 -0.088720269501209259 0.0963823124766349792
-0.0300011932849884033 -0.0949128493666648865 0.0963645055890083313
0.176192730665206909 -0.150554254651069641 0.108572550117969513
-0.0301016885787248611 -0.0888134688138961792 0.0950177162885665894
0.148075610399246216 -0.163094714283943176 0.104325383901596069
0.109065070748329163 -0.169267013669013977 0.100732214748859406
0.112564973533153534 -0.175435870885848999 0.101465873420238495
0.0556379631161689758 -0.19392038881778717 0.0996072664856910706
0.137512177228927612 -0.175659120082855225 0.102785483002662659
0.130368143320083618 -0.181833654642105103 0.102469407021999359
0.0592401586472988129 -0.194171369075775146 0.0985702797770500183
0.141286388039588928 -0.169694960117340088 0.101616762578487396
0.134131729602813721 -0.175882354378700256 0.101255632936954498
0.11987614631652832 -0.182066142559051514 0.100273273885250092
0.123426653444766998 -0.182066142559051514 0.100612618029117584
0.126975566148757935 -0.182066142559051514 0.100964784622192383
0.109478585422039032 -0.163708850741386414 0.0968832001090049744
0.145070701837539673 -0.163708850741386414 0.100479476153850555
0.112998262047767639 -0.16990894079208374 0.0976018905639648438
0.137905865907669067 -0.16990894079208374 0.100073285400867462
0.116510458290576935 -0.176105588674545288 0.0983514711260795593
0.127184212207794189 -0.176105588674545288 0.0993717312812805176
0.130738869309425354 -0.176105588674545288 0.0997373834252357483
0.0593568868935108185 -0.188487932085990906 0.0957867205142974854
0.14530828595161438 -0.157700896263122559 0.098943077027797699
0.148864775896072388 -0.157700896263122559 0.0993738919496536255
0.152419239282608032 -0.157700896263122559 0.0998173803091049194
0.155971601605415344 -0.157700896263122559 0.100273683667182922
0.138131707906723022 -0.163913562893867493 0.0985174626111984253
0.141690254211425781 -0.163913562893867493 0.09892243891954422
0.130952626466751099 -0.170122921466827393 0.0981622040271759033
0.13451288640499115 -0.170122921466827393 0.0985414087772369385
0.120208755135536194 -0.17632882297039032 0.0975368022918701172
0.123772017657756805 -0.17632882297039032 0.0978774279356002808
0.244964256882667542 -0.108019635081291199 0.112228117883205414
0.184694662690162659 -0.145443111658096313 0.102516219019889832
0.14910675585269928 -0.151671230792999268 0.0978555753827095032
0.173991307616233826 -0.151671230792999268 0.101234853267669678
0.138355061411857605 -0.157896324992179871 0.0969787761569023132
0.141920760273933411 -0.157896324992179871 0.0973845645785331726
0.159719288349151611 -0.157896324992179871 0.0996055826544761658
0.163272589445114136 -0.157896324992179871 0.100088059902191162
0.166823610663414001 -0.157896324992179871 0.100583344697952271
0.113301604986190796 -0.164118275046348572 0.0948967784643173218
0.131164044141769409 -0.164118275046348572 0.0966041609644889832
0.134731560945510864 -0.164118275046348572 0.0969841107726097107
0.116828396916389465 -0.170336887240409851 0.0956303030252456665
0.120400562882423401 -0.170336887240409851 0.0959587916731834412
0.123971171677112579 -0.170336887240409851 0.0963000878691673279
0.127540156245231628 -0.170336887240409851 0.0966542065143585205
0.177831888198852539 -0.145619988441467285 0.100275367498397827
0.138575896620750427 -0.151857390999794006 0.0954574272036552429
0.142148688435554504 -0.151857390999794006 0.0958640202879905701
0.145719543099403381 -0.151857390999794006 0.0962834954261779785
0.152855262160301208 -0.151857390999794006 0.097160831093788147
0.156419992446899414 -0.151857390999794006 0.0976187512278556824
0.188398152589797974 -0.151857390999794006 0.102314941585063934
0.131373137235641479 -0.158091768622398376 0.0950633808970451355
0.134947806596755981 -0.158091768622398376 0.0954441428184509277
0.117010846734046936 -0.164322972297668457 0.0940688177943229675
0.120590284466743469 -0.164322972297668457 0.0943979769945144653
0.124168157577514648 -0.164322972297668457 0.0947399511933326721
0.127744406461715698 -0.164322972297668457 0.0950948148965835571
0.245679140090942383 -0.101998284459114075 0.109764270484447479
0.17812347412109375 -0.139547333121299744 0.0987994074821472168
0.135212540626525879 -0.145796880125999451 0.0935589596629142761
0.138794198632240295 -0.145796880125999451 0.0939534753561019897
0.142373993992805481 -0.145796880125999451 0.0943608805537223816
0.145951852202415466 -0.145796880125999451 0.0947811678051948547
0.14952772855758667 -0.145796880125999451 0.0952142700552940369
0.153101563453674316 -0.145796880125999451 0.095660187304019928
0.174498200416564941 -0.145796880125999451 0.0986052230000495911
0.181611329317092896 -0.145796880125999451 0.099689289927482605
0.127996340394020081 -0.152043551206588745 0.0931713208556175232
0.131579861044883728 -0.152043551206588745 0.0935399383306503296
0.160180151462554932 -0.152043551206588745 0.0969516634941101074
0.163745790719985962 -0.152043551206588745 0.0974358245730400085
0.167309150099754333 -0.152043551206588745 0.097932867705821991
0.170870169997215271 -0.152043551206588745 0.098442666232585907
0.185089603066444397 -0.152043551206588745 0.100609786808490753
0.120777897536754608 -0.158287212252616882 0.0928544327616691589
0.124362953007221222 -0.158287212252616882 0.0931970849633216858
0.142645478248596191 -0.133453384041786194 0.0925496891140937805
0.146231770515441895 -0.133453384041786194 0.092970922589302063
0.131830990314483643 -0.139714941382408142 0.0916892886161804199
0.135421395301818848 -0.139714941382408142 0.0920716673135757446
0.139009967446327209 -0.139714941382408142 0.0924669951200485229
0.149764254689216614 -0.139714941382408142 0.0937302187085151672
0.153344988822937012 -0.139714941382408142 0.0941770076751708984
0.174783006310462952 -0.139714941382408142 0.0971277132630348206
0.128193691372871399 -0.145973756909370422 0.0916646048426628113
0.156865641474723816 -0.145973756909370422 0.0949800089001655579
0.160440504550933838 -0.145973756909370422 0.0954523012042045593
0.164013132452964783 -0.145973756909370422 0.0959374755620956421
0.167583480477333069 -0.145973756909370422 0.0964354649186134338
0.171151459217071533 -0.145973756909370422 0.0969462692737579346
0.106579646468162537 -0.152229711413383484 0.0900840312242507935
0.18524584174156189 -0.158482640981674194 0.0998556911945343018
0.188797757029533386 -0.158482640981674194 0.100429899990558624
0.139267846941947937 -0.127338290214538574 0.0906904786825180054
0.142862826585769653 -0.127338290214538574 0.0910996347665786743
0.146455869078636169 -0.127338290214538574 0.0915216729044914246
0.149997979402542114 -0.133611693978309631 0.0922636985778808594
0.153585553169250488 -0.133611693978309631 0.0927113741636276245
0.15711607038974762 -0.139882534742355347 0.0934971719980239868
0.160697832703590393 -0.139882534742355347 0.0939704105257987976
0.164277359843254089 -0.139882534742355347 0.0944565236568450928
0.167854592204093933 -0.139882534742355347 0.0949554592370986938
0.171429470181465149 -0.139882534742355347 0.0954672768712043762
0.113859899342060089 -0.1586780846118927 0.0899180993437767029
0.14307752251625061 -0.121202170848846436 0.0896673202514648438
0.14667724072933197 -0.121202170848846436 0.0900901034474372864
0.150274962186813354 -0.121202170848846436 0.0905259028077125549
0.153823226690292358 -0.127487301826477051 0.0912633389234542847
0.157415404915809631 -0.127487301826477051 0.0917247682809829712
0.160952121019363403 -0.133770003914833069 0.0925060510635375977
0.164538472890853882 -0.133770003914833069 0.0929930433630943298
0.168122515082359314 -0.133770003914833069 0.0934929922223091125
0.171704202890396118 -0.133770003914833069 0.0940057486295700073
0.175283476710319519 -0.133770003914833069 0.0945313945412635803
0.178860276937484741 -0.133770003914833069 0.0950698554515838623
0.15050014853477478 -0.115045182406902313 0.0891129449009895325
0.154057979583740234 -0.121341891586780548 0.0898329764604568481
0.157656833529472351 -0.121341891586780548 0.0902952849864959717
0.161203354597091675 -0.127636313438415527 0.0910592973232269287
0.164796426892280579 -0.127636313438415527 0.0915472358465194702
0.16838720440864563 -0.127636313438415527 0.0920480638742446899
0.179145127534866333 -0.127636313438415527 0.0936279594898223877
0.114159747958183289 -0.152788206934928894 0.0872441530227661133
0.110505737364292145 -0.159068956971168518 0.0873225927352905273
0.157895252108573914 -0.115175604820251465 0.0888835415244102478
0.161451488733291626 -0.121481612324714661 0.0896302908658981323
0.165051236748695374 -0.121481612324714661 0.0901191011071205139
0.168648660182952881 -0.121481612324714661 0.090620867908000946
0.172189459204673767 -0.127785339951515198 0.0914242789149284363
0.175780743360519409 -0.127785339951515198 0.0919516757130622864
0.110670141875743866 -0.152974367141723633 0.0857923403382301331
0.165302857756614685 -0.115306027233600616 0.0887087732553482056
0.168906852602958679 -0.115306027233600616 0.089211486279964447
0.110832661390304565 -0.146858185529708862 0.0842796936631202698
0.111093506217002869 -0.121761053800582886 0.0818517357110977173
0.172671541571617126 -0.121761053800582886 0.0888596624135971069
0.11134367436170578 -0.0902113616466522217 0.0795232653617858887
0.176493972539901733 -0.121900774538516998 0.0882515981793403625
0.11151905357837677 -0.0712433978915214539 0.0778908208012580872
0.237370789051055908 -0.147388815879821777 0.0993692353367805481
0.111655913293361664 -0.064943261444568634 0.0766169428825378418
0.241737738251686096 -0.135036483407020569 0.0972290188074111938
0.245936840772628784 -0.109715290367603302 0.0957781523466110229
0.250113815069198608 -0.0778966620564460754 0.0944798663258552551
0.24258752167224884 -0.141893699765205383 0.0941967740654945374
0.238706842064857483 -0.161023348569869995 0.0945163518190383911
0.258100420236587524 -0.0139066698029637337 0.0933163389563560486
0.246823132038116455 -0.116479814052581787 0.0926704332232475281
0.239119678735733032 -0.154835999011993408 0.0930167883634567261
0.254812240600585938 -0.0524336136877536774 0.0914852544665336609
0.251042664051055908 -0.0845393314957618713 0.0912785157561302185
0.255117833614349365 -0.058903224766254425 0.0904496833682060242
0.255417853593826294 -0.0653906986117362976 0.0894330665469169617
0.247703507542610168 -0.123297974467277527 0.0895834788680076599
0.251908779144287109 -0.0976804643869400024 0.088293418288230896
0.247939959168434143 -0.129871562123298645 0.0887543708086013794
0.244057968258857727 -0.14915764331817627 0.0889497101306915283
0.252290457487106323 -0.0913296863436698914 0.0869779214262962341
0.248170837759971619 -0.136461257934570312 0.0879447609186172485
0.244268983602523804 -0.155766800045967102 0.0881967544555664062
0.244474455714225769 -0.162391424179077148 0.0874635651707649231
0.260457843542098999 -0.02025647833943367 0.0854604169726371765
0.256702810525894165 -0.0720916315913200378 0.0850788429379463196
0.256991446018218994 -0.0786423161625862122 0.0841008126735687256
0.262138605117797852 -0.0267369672656059265 0.079859510064125061
0.262448668479919434 -0.00712831970304250717 0.0788262262940406799
0.0453083217144012451 0.0595821887254714966 -0.109552204608917236
0.0498366840183734894 0.0595821887254714966 -0.109478957951068878
0.054364670068025589 0.0595821887254714966 -0.109389446675777435
0.0454108305275440216 0.0679797455668449402 -0.115054167807102203
0.0499648191034793854 0.0679797455668449402 -0.114980578422546387
0.0909244343638420105 0.0679797455668449402 -0.113581851124763489
0.0545829422771930695 0.068203367292881012 -0.117198832333087921
-0.195384740829467773 -0.00298900855705142021 -0.0994325727224349976
0.104811765253543854 0.0762258544564247131 -0.115981273353099823
0.0591844767332077026 0.0683151856064796448 -0.118246272206306458
-0.204626649618148804 -0.0108860302716493607 -0.0989902317523956299
0.113999754190444946 0.0842644721269607544 -0.116222478449344635
0.10033860057592392 0.0763469785451889038 -0.117403611540794373
0.0637962222099304199 0.0684269964694976807 -0.1192769855260849
0.0683697238564491272 0.0684269964694976807 -0.119137294590473175
0.10953608900308609 0.084394894540309906 -0.117676787078380585
0.0729962959885597229 0.0685388073325157166 -0.120134621858596802
0.0775737091898918152 0.0685388073325157166 -0.119961880147457123
0.082150287926197052 0.0685388073325157166 -0.119772613048553467
0.0867259502410888672 0.0685388073325157166 -0.119566962122917175
-0.19615231454372406 0.0050379573367536068 -0.102750808000564575
-0.200666487216949463 -0.00290510361082851887 -0.102021664381027222
0.114173300564289093 0.0924587324261665344 -0.118179634213447571
0.0409491658210754395 0.0765892118215560913 -0.121740967035293579
0.0455343350768089294 0.0765892118215560913 -0.121683292090892792
0.204394310712814331 0.179736509919166565 -0.104504667222499847
0.109700478613376617 0.092598453164100647 -0.11963421106338501
0.10515158623456955 0.0846557319164276123 -0.120266422629356384
0.0501460731029510498 0.0767103284597396851 -0.122763045132160187
0.0960146412253379822 0.0767103284597396851 -0.121114142239093781
-0.2192097008228302 -0.0187741108238697052 -0.100967414677143097
0.114344589412212372 0.100687310099601746 -0.120111554861068726
-0.2014494389295578 0.00514982733875513077 -0.105336807668209076
0.209323316812515259 0.180219992995262146 -0.106123484671115875
0.109862737357616425 0.100836321711540222 -0.121566265821456909
0.105306804180145264 0.0928778946399688721 -0.12222357839345932
0.100744351744651794 0.0849165767431259155 -0.12284088134765625
0.0548004209995269775 0.0769525617361068726 -0.124979950487613678
0.0594005584716796875 0.0769525617361068726 -0.124872498214244843
0.0640001595020294189 0.0769525617361068726 -0.124748528003692627
0.0869873762130737305 0.0769525617361068726 -0.123880773782730103
0.0915821269154548645 0.0769525617361068726 -0.1236577108502388
-0.197176426649093628 0.013166697695851326 -0.107178144156932831
-0.206248745322227478 -0.0027932305820286274 -0.105720125138759613
-0.210771813988685608 -0.0107741551473736763 -0.104931630194187164
-0.246707230806350708 -0.0267369672656059265 -0.0976211801171302795
0.214052364230155945 0.180461734533309937 -0.106591999530792236
0.218565523624420166 0.180461734533309937 -0.105912499129772186
0.0686475038528442383 0.0770736858248710632 -0.125761359930038452
0.0732511654496192932 0.0770736858248710632 -0.125604137778282166
0.077854059636592865 0.0770736858248710632 -0.125430390238761902
0.0824561044573783875 0.0770736858248710632 -0.125240102410316467
-0.224577412009239197 -0.0187461413443088531 -0.103456072509288788
-0.251503050327301025 -0.0267369672656059265 -0.0977498069405555725
-0.255970865488052368 -0.0347277931869029999 -0.0967288762331008911
0.100890383124351501 0.0931573286652565002 -0.124797768890857697
0.0963144376873970032 0.0851774141192436218 -0.12540009617805481
-0.215843260288238525 -0.0107368631288409233 -0.106327250599861145
-0.229374423623085022 -0.0187368188053369522 -0.10366976261138916
-0.260762482881546021 -0.0427370704710483551 -0.096787087619304657
0.11011938750743866 0.109266616404056549 -0.12462218850851059
0.105551205575466156 0.101283371448516846 -0.125305473804473877
0.0456573218107223511 0.0853078365325927734 -0.128284364938735962
0.0502729266881942749 0.0853078365325927734 -0.128209695219993591
0.0548881404101848602 0.0853078365325927734 -0.128118500113487244
0.0917867198586463928 0.0853078365325927734 -0.126792013645172119
-0.202494069933891296 0.0133065301924943924 -0.109760023653507233
-0.207047030329704285 0.00529898935928940773 -0.109032094478607178
-0.211591318249702454 -0.00270932563580572605 -0.108264237642288208
-0.238677471876144409 -0.0187274962663650513 -0.102917887270450592
-0.234177634119987488 -0.0187274962663650513 -0.10386502742767334
-0.256635010242462158 -0.0267369672656059265 -0.0989794358611106873
-0.261108458042144775 -0.0347464382648468018 -0.0979400873184204102
0.096451297402381897 0.0934367701411247253 -0.12735670804977417
0.0410575270652770996 0.085438258945941925 -0.129496052861213684
0.0595405064523220062 0.085438258945941925 -0.129163995385169983
0.0641600936651229858 0.085438258945941925 -0.129039481282234192
0.0687790587544441223 0.085438258945941925 -0.128898367285728455
0.0733973234891891479 0.085438258945941925 -0.128740668296813965
0.0780148282647132874 0.085438258945941925 -0.128566369414329529
0.0826314762234687805 0.085438258945941925 -0.12837548553943634
0.0872471854090690613 0.085438258945941925 -0.128168016672134399
-0.220931693911552429 -0.0106995720416307449 -0.10770270973443985
-0.265921264886856079 -0.0187181718647480011 -0.0980132743716239929
-0.247983679175376892 -0.0187181718647480011 -0.10209694504737854
-0.243487581610679626 -0.0187181718647480011 -0.103077545762062073
-0.261447519063949585 -0.0267369672656059265 -0.0990699529647827148
0.110277310013771057 0.117581762373447418 -0.126502588391304016
0.105702333152294159 0.109583228826522827 -0.127211228013038635
0.101120367646217346 0.101581409573554993 -0.127879664301872253
0.0919144377112388611 0.0935764908790588379 -0.128748700022697449
-0.216678246855735779 -0.00265338900499045849 -0.109656825661659241
-0.225743263959884644 -0.0106809260323643684 -0.10793035477399826
-0.261779636144638062 -0.0187088493257761002 -0.100176684558391571
-0.257292360067367554 -0.0187088493257761002 -0.101206861436367035
-0.252800315618515015 -0.0187088493257761002 -0.102220848202705383
0.224218189716339111 0.181670457124710083 -0.110863789916038513
0.0965863689780235291 0.101730421185493469 -0.129287764430046082
0.0642330870032310486 0.0937162190675735474 -0.130997911095619202
0.0688611716032028198 0.0937162190675735474 -0.130856528878211975
0.0734885632991790771 0.0937162190675735474 -0.130698487162590027
0.0781151801347732544 0.0937162190675735474 -0.130523860454559326
0.0827409401535987854 0.0937162190675735474 -0.130332574248313904
0.0873657763004302979 0.0937162190675735474 -0.130124688148498535
-0.212404951453208923 0.00541085889562964439 -0.111573033034801483
-0.2214936763048172 -0.00262542068958282471 -0.109900794923305511
-0.26210474967956543 -0.0106622800230979919 -0.101260080933570862
-0.239596247673034668 -0.0106622800230979919 -0.106255143880844116
-0.235080868005752563 -0.0106622800230979919 -0.107205525040626526
-0.23056107759475708 -0.0106622800230979919 -0.108139723539352417
0.101262554526329041 0.109899848699569702 -0.129785075783729553
0.0920404866337776184 0.101879440248012543 -0.130679875612258911
0.0411010198295116425 0.093855932354927063 -0.132608696818351746
0.045736800879240036 0.093855932354927063 -0.132550418376922607
0.0503722727298736572 0.093855932354927063 -0.132475420832633972
0.0550073571503162384 0.093855932354927063 -0.132383823394775391
0.0596419759094715118 0.093855932354927063 -0.132275566458702087
-0.203532904386520386 0.0215368270874023438 -0.114158757030963898
-0.208112135529518127 0.0134929707273840904 -0.113450996577739716
-0.217224031686782837 0.00544814765453338623 -0.111833192408084869
-0.226315438747406006 -0.00259745237417519093 -0.110126346349716187
-0.257942795753479004 -0.0106436340138316154 -0.103410884737968445
-0.253440499305725098 -0.0106436340138316154 -0.104427233338356018
-0.248933494091033936 -0.0106436340138316154 -0.105427458882331848
-0.244421869516372681 -0.0106436340138316154 -0.10641142725944519
0.233626261353492737 0.190141990780830383 -0.111045368015766144
0.215694844722747803 0.174160867929458618 -0.115112848579883575
0.22024768590927124 0.174160867929458618 -0.114427343010902405
0.105942554771900177 0.118084557354450226 -0.130240440368652344
0.0967196449637413025 0.11005815863609314 -0.131193175911903381
0.0457513406872749329 0.102028459310531616 -0.133330762386322021
0.0503904484212398529 0.102028459310531616 -0.133255749940872192
0.0550291649997234344 0.102028459310531616 -0.133164092898368835
0.0596674159169197083 0.102028459310531616 -0.133055761456489563
0.0643051266670227051 0.102028459310531616 -0.132930710911750793
0.0689422115683555603 0.102028459310531616 -0.132789060473442078
0.0735786035656929016 0.102028459310531616 -0.13263075053691864
0.0782142132520675659 0.102028459310531616 -0.132455781102180481
0.0828489735722541809 0.102028459310531616 -0.132264092564582825
0.0874828025698661804 0.102028459310531616 -0.132055804133415222
0.03647574782371521 0.0939956530928611755 -0.133803650736808777
-0.212934732437133789 0.0135395815595984459 -0.113727547228336334
-0.22204957902431488 0.00548543641343712807 -0.112075068056583405
-0.262758433818817139 -0.00256948405876755714 -0.103438407182693481
-0.249236762523651123 -0.00256948405876755714 -0.106490820646286011
-0.244720190763473511 -0.00256948405876755714 -0.107475869357585907
-0.240199074149131775 -0.00256948405876755714 -0.108444735407829285
-0.235673487186431885 -0.00256948405876755714 -0.109397269785404205
-0.231143489480018616 -0.00256948405876755714 -0.110333554446697235
0.229452565312385559 0.182395696640014648 -0.113533489406108856
0.0828911885619163513 0.11021646112203598 -0.133018806576728821
0.087528526782989502 0.11021646112203598 -0.13281036913394928
0.0921648666262626648 0.11021646112203598 -0.132585227489471436
0.0411280319094657898 0.102177470922470093 -0.134541973471641541
-0.213180765509605408 0.0216486863791942596 -0.114728040993213654
-0.217763841152191162 0.0135861923918128014 -0.113985680043697357
-0.263069480657577515 0.00552272889763116837 -0.104474984109401703
-0.231420636177062988 0.00552272889763116837 -0.11137755960226059
-0.226881444454193115 0.00552272889763116837 -0.112298600375652313
-0.258586287498474121 -0.00254151574335992336 -0.105591431260108948
-0.254073828458786011 -0.00254151574335992336 -0.106610141694545746
0.238648310303688049 0.190643966197967529 -0.11254776269197464
0.225254639983177185 0.17462584376335144 -0.115985795855522156
0.211674004793167114 0.166609421372413635 -0.118628852069377899
0.0922124758362770081 0.118419758975505829 -0.133314698934555054
0.0968511179089546204 0.118419758975505829 -0.133072763681411743
0.101488590240478516 0.118419758975505829 -0.132814154028892517
0.0411385819315910339 0.110374771058559418 -0.135297089815139771
0.045786883682012558 0.110374771058559418 -0.135238602757453918
0.0504348762333393097 0.110374771058559418 -0.135163456201553345
0.0550824813544750214 0.110374771058559418 -0.135071590542793274
0.0597296133637428284 0.110374771058559418 -0.134963065385818481
0.0643762052059173584 0.110374771058559418 -0.134837806224822998
0.0690221786499023438 0.110374771058559418 -0.134695827960968018
0.0736674442887306213 0.110374771058559418 -0.134537249803543091
0.0783119350671768188 0.110374771058559418 -0.134361878037452698
0.0364937521517276764 0.102326489984989166 -0.135736599564552307
-0.213420912623405457 0.0297752674669027328 -0.115704663097858429
-0.218014493584632874 0.0217046197503805161 -0.114985160529613495
-0.208898723125457764 0.0217046197503805161 -0.116714403033256531
-0.227147564291954041 0.0136328032240271568 -0.113319873809814453
-0.22259935736656189 0.0136328032240271568 -0.114225536584854126
-0.25889250636100769 0.0055600176565349102 -0.10662909597158432
-0.254375219345092773 0.0055600176565349102 -0.107648812234401703
-0.249853208661079407 0.0055600176565349102 -0.108652345836162567
-0.245326563715934753 0.0055600176565349102 -0.109639622271060944
-0.240795359015464783 0.0055600176565349102 -0.11061057448387146
-0.236259683966636658 0.0055600176565349102 -0.111565276980400085
0.234476044774055481 0.182879164814949036 -0.115054033696651459
0.230045422911643982 0.174858346581459045 -0.116395220160484314
0.106180645525455475 0.126638129353523254 -0.133242741227149963
0.0458004847168922424 0.118587352335453033 -0.135968625545501709
0.0504518784582614899 0.118587352335453033 -0.13589341938495636
0.0551028810441493988 0.118587352335453033 -0.13580147922039032
0.05975341796875 0.118587352335453033 -0.135692879557609558
0.0644034072756767273 0.118587352335453033 -0.135567560791969299
0.0690527781844139099 0.118587352335453033 -0.13542550802230835
0.0737014412879943848 0.118587352335453033 -0.135266736149787903
0.0783493295311927795 0.118587352335453033 -0.135091289877891541
0.0829963609576225281 0.118587352335453033 -0.134899124503135681
0.0876424610614776611 0.118587352335453033 -0.1346902996301651
-0.209134280681610107 0.0298405159264802933 -0.117691695690155029
-0.204565882682800293 0.0298405159264802933 -0.118532605469226837
-0.222854629158973694 0.021760549396276474 -0.11522393673658371
-0.263709008693695068 0.0136794149875640869 -0.106606096029281616
-0.259191781282424927 0.0136794149875640869 -0.107643149793148041
-0.254669755697250366 0.0136794149875640869 -0.108663946390151978
-0.25014302134513855 0.0136794149875640869 -0.109668493270874023
-0.245611637830734253 0.0136794149875640869 -0.110656782984733582
-0.241075679659843445 0.0136794149875640869 -0.111628815531730652
-0.236535236239433289 0.0136794149875640869 -0.11258445680141449
-0.231990396976470947 0.0136794149875640869 -0.11352384090423584
0.243687793612480164 0.191145956516265869 -0.114030331373214722
0.216679811477661133 0.167055889964103699 -0.120222583413124084
0.221256434917449951 0.167055889964103699 -0.119533568620681763
